-0.12333857268095016 0.47083547711372375 -0.2816286087036133 0 250 250
-0.16939522325992584 -0.31388312578201294 -0.2096620500087738 21 143 224
-0.03857690468430519 -0.12507103383541107 -0.26829060912132263 101 248 255
-0.17182600498199463 0.1888205111026764 0.21872198581695557 192 189 231
-0.14104148745536804 0.11572940647602081 0.1481723040342331 211 198 238
0.07461270689964294 -0.2777511477470398 0.2562134861946106 32 153 227
-0.05867988243699074 -0.13001155853271484 0.10468179732561111 101 248 255
0.10350565612316132 0.0640014037489891 0.013993148691952229 176 184 228
-0.11601006984710693 0.09982858598232269 0.07206688821315765 174 184 227
0.0020430730655789375 -0.3428233563899994 0.18634366989135742 101 249 255
-0.06199014559388161 -0.28898900747299194 0.19545374810695648 120 119 118
0.1253509521484375 -0.03303516283631325 -0.045420192182064056 77 245 255
-0.16103635728359222 0.03567313402891159 0.1639532744884491 212 200 239
-0.18140451610088348 0.21019281446933746 0.338812917470932 0 93 255
0.16371266543865204 0.21857944130897522 0.1541147530078888 0 93 255
-0.05867635831236839 0.27108901739120483 -0.009233737364411354 21 143 224
-0.029865283519029617 0.07812438905239105 -0.0032169355545192957 101 248 255
0.17920269072055817 0.2382260411977768 0.13715659081935883 1 93 250
-0.1652853786945343 0.19775983691215515 0.1605973094701767 0 93 255
0.0331665575504303 0.1604282557964325 -0.22307352721691132 101 248 255
-0.07809442281723022 0.31555113196372986 -0.12783941626548767 21 143 224
-0.046529315412044525 0.21502266824245453 -0.17380814254283905 20 143 224
0.09054311364889145 -0.08289118856191635 -0.48601198196411133 255 165 237
0.1156739890575409 -0.08425665646791458 -0.09289593994617462 1 94 248
-0.031756989657878876 -0.08351161330938339 0.13448596000671387 19 144 226
-0.023189431056380272 0.1807776838541031 0.01976373791694641 21 144 225
-0.1885090321302414 -0.2487623542547226 0.2588394582271576 20 144 226
0.10129709541797638 0.0806109756231308 -0.15338514745235443 80 212 253
0.19803579151630402 0.05592566728591919 0.2369551807641983 125 170 237
0.0706557109951973 0.02202722616493702 -0.13668084144592285 101 249 255
-0.10108605027198792 -0.2574491798877716 0.042098723351955414 0 93 255
0.1383066028356552 0.14397937059402466 0.11727770417928696 174 185 230
0.0843740701675415 -0.24194687604904175 0.12154997140169144 67 208 255
0.21148882806301117 0.13647836446762085 0.38826924562454224 0 94 248
-0.04464266076683998 -0.28274595737457275 0.3926401138305664 255 255 70
0.11246614158153534 -0.17967166006565094 0.19964146614074707 101 250 255
0.11055554449558258 0.15012870728969574 0.04405253753066063 0 96 255
-0.11410655081272125 -0.02068202942609787 -0.057793989777565 194 191 234
0.00751941092312336 0.2247617095708847 -0.37696126103401184 20 143 225
-0.12512275576591492 0.06547325849533081 0.10627532750368118 213 201 240
-0.06702707707881927 -0.14429669082164764 0.32101333141326904 64 191 239
-0.24216733872890472 0.20333701372146606 0.4526880979537964 140 180 241
-0.0985235869884491 -0.09384123235940933 0.28725185990333557 101 248 255
-0.10072480887174606 -0.34880754351615906 -0.293478786945343 0 252 255
0.14428074657917023 0.08396298438310623 0.10017751902341843 124 167 240
-0.007274296134710312 -0.2950959801673889 0.47325223684310913 188 45 234
-0.04157459735870361 -0.07882288843393326 -0.4529259204864502 101 249 255
0.11040659993886948 -0.09603071957826614 0.3073497414588928 101 250 255
-0.0663987547159195 0.48234596848487854 -0.3593316376209259 21 143 224
-0.166046142578125 0.2181844413280487 0.27635905146598816 0 93 255
0.07763639092445374 -0.29056060314178467 0.2989189922809601 20 143 227
0.10937844216823578 0.09076830744743347 0.02931186556816101 160 184 231
-0.06087224557995796 -0.07399893552064896 -0.16856388747692108 101 249 255
0.037412479519844055 0.0887594223022461 -0.009218691848218441 102 248 255
-0.007591971196234226 0.18589068949222565 -0.06642895191907883 0 93 255
-0.10435117781162262 -0.12400518357753754 -0.4201100468635559 100 248 255
-0.016357354819774628 -0.33542102575302124 0.36342841386795044 102 249 255
-0.023998210206627846 0.053752608597278595 -0.13223321735858917 101 248 255
-0.1597021073102951 -0.1804932951927185 0.31271377205848694 21 143 224
0.01001268532127142 0.26672226190567017 -0.05768277123570442 0 93 255
0.09113287180662155 0.04404759779572487 -0.025229012593626976 202 195 236
0.17381194233894348 0.04609428718686104 0.29806992411613464 218 204 242
0.11358381062746048 0.13068003952503204 0.10237272083759308 182 186 229
-0.1792864203453064 -0.321510910987854 0.1566326916217804 21 143 224
0.16674751043319702 0.007966890931129456 0.2607947885990143 214 204 244
-0.04002949222922325 0.14702904224395752 -0.029045794159173965 20 143 225
0.03495919704437256 -0.3250736594200134 0.22365449368953705 101 248 255
-0.05566835403442383 0.3212740123271942 -0.06276265531778336 21 143 224
0.1335911750793457 0.03754764795303345 0.09763379395008087 211 200 238
-0.09638507664203644 0.1495727002620697 -0.3175946772098541 101 248 255
-0.11239174008369446 -0.2226051390171051 -0.15488262474536896 0 93 255
-0.043563373386859894 -0.39086177945137024 0.2880576550960541 21 143 224
0.07097917050123215 0.12253613024950027 -0.10307135432958603 101 248 255
0.1014397144317627 0.008841910399496555 0.08027946949005127 218 202 242
-0.09005909413099289 -0.02869955636560917 -0.1359979659318924 1 93 255
0.11394714564085007 0.027358433231711388 -0.08810793608427048 0 91 248
-0.17732705175876617 0.034181371331214905 0.19930535554885864 1 93 255
-0.11325697600841522 0.10202635079622269 0.0439121387898922 155 183 232
-0.17819611728191376 -0.40994787216186523 -0.22398877143859863 21 143 224
-0.14780272543430328 0.15689659118652344 0.27165231108665466 213 201 239
-0.1947658807039261 0.11793286353349686 0.33460038900375366 189 187 230
-0.07028858363628387 0.1126268282532692 -0.05318208783864975 112 234 254
0.03683462738990784 0.20870710909366608 -0.4084623456001282 101 248 255
0.12402072548866272 0.15961012244224548 -0.451808899641037 99 244 253
0.1213918998837471 0.10041724145412445 0.08981961011886597 186 186 229
0.07970474660396576 -0.10414370149374008 -0.2458977848291397 102 249 255
-0.0056151519529521465 0.2057330310344696 -0.3163226842880249 22 147 227
-0.029369190335273743 0.171847403049469 -0.06974811106920242 20 143 225
-0.05288023501634598 -0.19145260751247406 0.38650819659233093 21 143 224
-0.05378470942378044 -0.09881442040205002 0.17278295755386353 101 247 254
-0.19030825793743134 0.13980600237846375 0.301495224237442 214 201 239
0.0077291978523135185 0.25709742307662964 -0.21692168712615967 21 143 224
0.04981885850429535 0.12501201033592224 -0.1434696912765503 101 248 255
0.17729057371616364 0.07692588865756989 0.16522902250289917 5 95 255
0.22017444670200348 0.30500367283821106 0.16574633121490479 1 93 248
0.0872078463435173 -0.11465536803007126 0.20987188816070557 101 248 255
0.06368400901556015 0.14071983098983765 -0.49970105290412903 71 111 175
-0.17937788367271423 -0.2098894864320755 -0.17749536037445068 21 143 224
-0.17061632871627808 -0.3543713688850403 -0.18237972259521484 21 143 224
0.12604428827762604 -0.05901135504245758 -0.09846150130033493 0 128 255
0.2115240842103958 0.28762149810791016 0.31184881925582886 139 179 232
-0.047820474952459335 -0.06722897291183472 -0.016140375286340714 217 203 241
-0.08556266874074936 -0.13751356303691864 -0.09422960132360458 101 249 255
-0.04043206945061684 0.3424229919910431 -0.12671682238578796 3 102 253
-0.13490256667137146 0.04709814861416817 0.0937618687748909 187 187 230
-0.17354124784469604 -0.11742699891328812 -0.043574873358011246 0 250 255
-0.18303364515304565 0.06699768453836441 0.28848108649253845 217 203 241
0.17000943422317505 0.04964115098118782 0.1726459264755249 14 95 250
-0.03816985338926315 -0.2917414903640747 0.08760631084442139 101 248 255
0.03234758973121643 -0.2989451587200165 0.36001208424568176 21 142 224
0.16704849898815155 0.1831107884645462 0.2072799950838089 195 191 232
-0.10924307256937027 -0.2988026440143585 -0.3744242787361145 7 109 246
-0.09845710545778275 -0.021203255280852318 -0.030486132949590683 203 196 235
-0.14184388518333435 -0.38421064615249634 -0.36293065547943115 21 143 224
0.09978291392326355 0.08275939524173737 -0.1117570772767067 99 246 252
0.08976191282272339 -0.244920551776886 0.2003432959318161 224 230 250
-0.033102814108133316 -0.22497765719890594 0.39300858974456787 21 146 226
-0.10312533378601074 -0.30578163266181946 -0.07216949015855789 0 252 255
0.22586484253406525 0.1684386134147644 0.41705963015556335 0 92 252
-0.04314815253019333 0.26284873485565186 -0.40341880917549133 0 250 255
0.03759133070707321 -0.285589337348938 0.42164766788482666 255 255 70
-0.21133284270763397 0.2398461401462555 0.3636755347251892 138 179 235
0.17359265685081482 0.1821569800376892 0.3352345824241638 0 93 255
0.1380244344472885 0.17185860872268677 0.19975699484348297 191 189 231
0.19670799374580383 0.08486291021108627 0.21731413900852203 130 170 235
-0.0961984321475029 0.023424334824085236 -0.03708920255303383 0 93 255
0.09692893922328949 -0.045677077025175095 -0.09052316099405289 210 200 240
-0.04084588587284088 0.21514570713043213 -0.464802086353302 101 249 255
-0.16980186104774475 -0.10722242295742035 0.11553186923265457 0 251 255
-0.08604159951210022 -0.13721562922000885 -0.38530489802360535 98 245 255
-0.05602937936782837 0.41412848234176636 -0.3093092143535614 4 105 250
-0.04653554409742355 0.44498211145401 -0.33532145619392395 0 93 255
0.2242380678653717 0.2393198311328888 0.43728145956993103 0 93 255
-0.1317611038684845 0.11353490501642227 0.11689133942127228 195 190 231
-0.058778513222932816 0.36963048577308655 -0.26112085580825806 5 104 249
0.03666356950998306 -0.27036547660827637 0.37474703788757324 73 156 220
-0.01483788900077343 -0.3539842963218689 0.3941347897052765 98 244 253
-0.004232766106724739 -0.4022938311100006 0.45425423979759216 95 240 254
0.0795583724975586 -0.1367400735616684 -0.14828218519687653 101 249 255
-0.04228922724723816 -0.23203065991401672 0.08061350882053375 101 249 255
0.1536288559436798 0.17835548520088196 0.10960588604211807 0 93 255
-0.07546579837799072 -0.12082430720329285 -0.29241132736206055 101 248 255
-0.028013193979859352 0.09630639106035233 -0.15674930810928345 101 249 255
-0.12757878005504608 -0.33471426367759705 -0.3350103497505188 21 143 224
0.05308496579527855 -0.29620230197906494 0.16451328992843628 38 29 237
-0.11175940930843353 0.15477731823921204 -0.3943251967430115 101 248 255
0.07116677612066269 0.20826540887355804 -0.4990018606185913 255 161 238
0.11747267842292786 0.136754110455513 0.13199104368686676 193 189 231
-0.143579363822937 -0.025267932564020157 0.20726758241653442 213 207 242
0.1138550415635109 -0.031155917793512344 -0.056773360818624496 214 205 241
-0.09247145056724548 -0.3878062069416046 0.09027758985757828 0 93 255
-0.1915123015642166 -0.17792315781116486 0.1624610722064972 0 92 255
-0.13970895111560822 -0.48877379298210144 -0.25080040097236633 21 143 224
-0.04646444320678711 0.021945444867014885 -0.01564018614590168 102 249 255
-0.18254703283309937 -0.47533759474754333 -0.23732450604438782 20 143 223
-0.15588460862636566 -0.1258901208639145 0.2773685157299042 21 143 224
-0.101144939661026 0.07165422290563583 -0.12032468616962433 104 49 125
-0.10259473323822021 -0.28083252906799316 0.11848080903291702 20 143 225
0.0027198968455195427 0.053579457104206085 0.0035643167793750763 101 248 255
-0.15446226298809052 0.06506209075450897 0.12218794971704483 23 98 252
-0.07545577734708786 0.2943609654903412 -0.3365136384963989 0 93 255
0.09159150719642639 -0.05948880314826965 -0.007611239794641733 25 140 218
-0.0011354375164955854 -0.3751716911792755 0.11421142518520355 85 223 247
-0.20257414877414703 0.1245838850736618 0.3763120770454407 0 93 252
-0.0737820640206337 0.44053196907043457 -0.2712244987487793 4 236 251
-0.24525228142738342 0.29433271288871765 0.40438392758369446 35 103 255
-0.1719174087047577 -0.2915993928909302 -0.14646504819393158 21 142 224
-0.19088655710220337 -0.2859332263469696 0.14594703912734985 21 143 224
0.132338285446167 -0.11339222639799118 0.008175843395292759 1 247 252
-0.1071261465549469 0.07851740717887878 0.02661023661494255 167 183 229
0.20053483545780182 0.08807335793972015 0.22711355984210968 141 175 231
0.03011440671980381 0.18286676704883575 -0.46162179112434387 101 248 255
0.06596701592206955 -0.018076764419674873 -0.09378853440284729 100 250 255
0.19552025198936462 0.12810319662094116 0.3279198408126831 192 189 231
0.03614753857254982 0.15769357979297638 -0.3862009048461914 100 243 252
0.09882660210132599 -0.08915510773658752 -0.4664764106273651 104 245 255
-0.14491045475006104 0.19473619759082794 0.1929202675819397 169 182 228
-0.1363958716392517 -0.3777194917201996 -0.21362952888011932 20 143 224
0.0683867335319519 -0.2841743230819702 0.13445165753364563 101 250 255
-0.0940069630742073 0.4907192289829254 -0.27680644392967224 21 143 224
0.08293689787387848 -0.09056661278009415 0.2772975564002991 1 247 255
-0.044798146933317184 -0.2567604184150696 0.3954460322856903 253 255 75
0.09106267988681793 -0.09579022973775864 0.27486130595207214 78 210 243
-0.0476120188832283 -0.1811075210571289 -0.11981656402349472 101 248 255
0.0053068045526742935 0.1328163743019104 -0.015430383384227753 20 143 224
-0.04230595380067825 0.13443110883235931 -0.4665779769420624 70 112 174
0.07345647364854813 0.20748919248580933 -0.4990527033805847 240 158 236
0.010320079512894154 -0.3541114032268524 0.37241408228874207 100 249 255
-0.029373351484537125 -0.3301565945148468 0.22021865844726562 101 249 255
-0.12058860063552856 -0.16690808534622192 -0.1812451183795929 19 138 227
-0.06197410449385643 0.12667784094810486 -0.16944058239459991 101 249 255
-0.10571777075529099 0.40116870403289795 -0.29209235310554504 21 143 225
0.17778800427913666 0.013363048434257507 0.2253265380859375 218 203 241
0.069966621696949 -0.09082586318254471 0.30937662720680237 21 143 224
-0.04509644955396652 -0.06363222748041153 -0.2948654294013977 100 248 255
-0.2004871368408203 -0.22537186741828918 0.13184766471385956 21 143 225
0.05585489422082901 -0.16492152214050293 0.06298128515481949 81 252 255
0.07833120226860046 -0.25208625197410583 0.24171574413776398 102 249 255
-0.0988849475979805 0.09151798486709595 -0.13857051730155945 101 249 255
-0.22715072333812714 0.30373072624206543 0.3446662127971649 138 178 233
0.19703862071037292 0.11429637670516968 0.35051974654197693 168 183 229
0.09120180457830429 0.08051218092441559 0.01557872723788023 202 196 235
-0.07980821281671524 0.3125059902667999 -0.3024905323982239 19 138 228
-0.06674972921609879 0.22051338851451874 -0.11928059905767441 21 143 224
0.2082529366016388 0.2545977532863617 0.3338000476360321 140 179 232
-0.15986406803131104 0.05719126760959625 0.30390501022338867 219 206 243
-0.20106227695941925 0.2392955869436264 0.32033857703208923 0 93 255
-0.007369084749370813 -0.3771831691265106 0.4092816710472107 75 207 243
-0.11289401352405548 -0.001271746470592916 -0.08495263010263443 0 93 254
-0.1610698699951172 0.08119053393602371 0.11306897550821304 0 96 255
-0.07743798941373825 -0.10724834352731705 0.3226247727870941 101 248 255
-0.029109792783856392 -0.1471923589706421 -0.49275967478752136 71 111 175
0.018532177433371544 0.10819461941719055 -0.11847084015607834 101 248 255
-0.14342088997364044 0.15338468551635742 0.1294015496969223 173 184 229
0.1871366649866104 0.047439757734537125 0.21271036565303802 0 94 255
0.11716559529304504 0.13031400740146637 0.14160479605197906 202 195 235
0.11263727396726608 -0.023600537329912186 -0.0546538345515728 200 194 233
-0.15923255681991577 -0.14242804050445557 -0.17923910915851593 21 143 224
-0.13738222420215607 0.09243569523096085 0.2595200836658478 217 203 241
-0.0673096552491188 0.09837011247873306 -0.03740821033716202 104 244 254
0.0932086855173111 -0.06944584101438522 0.18264704942703247 21 143 224
-0.0721355453133583 -0.17431549727916718 -0.49758288264274597 71 111 175
-0.11495786160230637 0.10423589497804642 0.1598028689622879 215 202 239
-0.1578817516565323 0.11208774894475937 0.3119823634624481 218 204 242
-0.11412712186574936 0.4614136219024658 -0.3824070692062378 0 251 255
-0.06782514601945877 0.09382618218660355 -0.2255634367465973 101 249 255
-0.002332410542294383 0.3193569481372833 -0.10967904329299927 0 93 255
0.06268323212862015 -0.05410124734044075 0.1159689649939537 27 145 223
-0.12523560225963593 -0.2230505347251892 0.3559446632862091 21 143 224
0.11746519804000854 0.11303457617759705 0.16498088836669922 213 201 239
0.08820830285549164 -0.10273221880197525 -0.4962971806526184 70 111 175
0.11460530012845993 -0.1480085402727127 -0.4740654230117798 255 163 236
0.1549631506204605 0.1608414649963379 0.16444596648216248 191 188 231
0.19730092585086823 0.05628224089741707 0.23531806468963623 138 179 232
0.1404353827238083 0.0023109600879251957 0.2548520565032959 217 203 241
-0.08106046915054321 -0.17973211407661438 0.10700426250696182 101 249 255
-0.0209602452814579 -0.04543116316199303 -0.014750507660210133 101 250 255
0.15971137583255768 0.04704051464796066 0.2153872698545456 218 203 241
0.11213009059429169 -0.11139778792858124 0.09457135200500488 3 240 251
-0.09624422341585159 0.42069414258003235 -0.34608200192451477 0 213 255
-0.031239764764904976 0.4092293083667755 -0.342319518327713 0 252 255
0.1008656844496727 -0.018887834623456 -0.04853608086705208 0 91 255
0.19892819225788116 0.16388249397277832 0.38347044587135315 0 93 255
0.1305055022239685 0.06356800347566605 0.24380497634410858 217 203 241
-0.1849619746208191 -0.254642128944397 -0.097264364361763 0 251 255
-0.029292931780219078 -0.3565542995929718 0.13691122829914093 101 249 255
0.12823182344436646 -0.10434910655021667 -0.0862441211938858 0 93 254
0.14695002138614655 0.05028064176440239 0.1833016276359558 218 204 241
-0.11594188213348389 -0.14306725561618805 0.03819930925965309 121 162 229
0.03491462022066116 -0.10030300170183182 -0.4927966594696045 70 110 174
0.13597656786441803 0.12747696042060852 0.23937688767910004 218 203 241
-0.11588336527347565 -0.3435896337032318 -0.2991490960121155 21 143 224
0.06042995676398277 0.19479714334011078 -0.2677386701107025 101 249 255
-0.03398227319121361 0.29630836844444275 -0.023102588951587677 21 143 225
0.12474101781845093 -0.021101413294672966 0.19393199682235718 215 202 240
-0.07438258826732635 0.01920127309858799 -0.12779544293880463 101 249 255
0.13234181702136993 0.15550529956817627 0.1838095784187317 199 193 234
0.008267983794212341 -0.25310295820236206 0.07608795911073685 100 248 255
-0.15804629027843475 -0.37314972281455994 0.1949630081653595 21 143 224
-0.09020877629518509 0.36041882634162903 -0.35688528418540955 0 93 255
0.13280467689037323 0.1468046009540558 0.20989137887954712 212 200 239
0.0526123009622097 0.002453580964356661 -0.00545091787353158 217 203 240
-0.012752392329275608 0.33761072158813477 -0.21912088990211487 0 251 255
-0.0357537642121315 0.27356699109077454 -0.4240752160549164 0 251 250
-0.08271448314189911 0.22888700664043427 -0.05484041944146156 21 143 224
-0.12000629305839539 -0.43366822600364685 -0.2770090401172638 21 143 224
-0.018902309238910675 0.3391328752040863 -0.14509280025959015 0 252 255
-0.06061825156211853 0.17784634232521057 -0.21270990371704102 98 245 255
0.007878872565925121 0.31309816241264343 -0.25353091955184937 1 245 253
-0.14858576655387878 0.03683936595916748 0.13531871140003204 211 200 239
-0.03039933368563652 0.18157373368740082 -0.3407140076160431 101 249 255
0.09542855620384216 0.076563760638237 0.06733803451061249 213 200 239
-0.07730210572481155 -0.07637006789445877 -0.2592836618423462 101 248 255
0.03743625432252884 -0.05920637771487236 -0.13204693794250488 101 249 255
0.17192551493644714 0.13014428317546844 0.33764398097991943 145 162 241
-0.10489800572395325 -0.22741475701332092 0.131709486246109 21 142 223
0.238120436668396 0.30763253569602966 0.3682737946510315 139 180 233
-0.09536280483007431 -0.11859077960252762 -0.054754603654146194 213 207 242
-0.15263274312019348 -0.3833008408546448 -0.2552257776260376 21 143 224
-0.11310584098100662 0.06575322896242142 0.04807959124445915 201 194 235
-0.17699554562568665 -0.11472783982753754 0.049980007112026215 0 251 255
-0.034888848662376404 0.15970702469348907 -0.38583821058273315 100 244 255
-0.14278551936149597 0.04380524158477783 0.11724613606929779 194 190 232
-0.2196650356054306 0.27490073442459106 0.37601733207702637 0 93 255
-0.15815870463848114 -0.24930348992347717 -0.3010641634464264 21 143 224
-0.06764290481805801 0.42884308099746704 -0.2913129925727844 0 195 255
0.2185031920671463 0.29558315873146057 0.3659345507621765 0 91 249
0.17384125292301178 0.22474923729896545 0.18790413439273834 0 93 255
0.024792736396193504 -0.15740616619586945 -0.462374746799469 72 111 173
0.10881806910037994 0.14515602588653564 0.08432338386774063 0 92 253
-0.15368041396141052 -0.38514596223831177 0.15110032260417938 21 143 224
0.09842535853385925 0.07555591315031052 -0.0279143787920475 161 187 231
0.023367421701550484 -0.11096019297838211 -0.3792495131492615 101 248 255
-0.005247396882623434 0.2315358817577362 -0.22881968319416046 20 143 224
-0.1038200706243515 -0.1541339010000229 0.24882210791110992 98 244 255
0.04459264874458313 -0.3414933681488037 0.3220705986022949 21 143 224
-0.10242999345064163 0.03000692091882229 0.004046429879963398 202 196 234
-0.03413219749927521 0.16065655648708344 -0.3983275592327118 95 235 255
0.08935987204313278 -0.0951814278960228 -0.32142704725265503 101 249 255
-0.10784737765789032 0.43615251779556274 -0.25329962372779846 7 224 246
0.07219291478395462 -0.06995280832052231 -0.2557936906814575 101 249 255
0.04528205841779709 0.06910593062639236 -0.18106098473072052 101 248 255
-0.23368194699287415 0.3577107787132263 0.2479030191898346 0 93 255
-0.03193708881735802 0.16442078351974487 -0.43186038732528687 101 248 254
0.07429555803537369 -0.13673777878284454 -0.02188677154481411 0 94 251
0.121127188205719 0.17287181317806244 -0.49637699127197266 71 111 175
-0.08168553560972214 0.05988640338182449 -0.012487860396504402 213 201 239
-0.05413796380162239 -0.15998347103595734 -0.43193790316581726 99 244 252
-0.04482661932706833 0.30017417669296265 -0.3706788122653961 0 251 255
-0.09907364100217819 0.06755762547254562 -0.10150683671236038 102 248 254
0.1448986679315567 0.14251814782619476 0.2689361274242401 217 203 239
-0.08798078447580338 -0.08830614387989044 -0.31352344155311584 100 248 255
0.1281227022409439 -0.02973439358174801 -0.05077054724097252 0 254 255
0.09906663745641708 -0.1416620910167694 0.17067259550094604 101 248 255
-0.1801377683877945 0.09572473168373108 0.26679524779319763 217 203 241
-0.15143364667892456 -0.09482737630605698 0.060787051916122437 3 240 253
-0.07244549691677094 -0.07954248785972595 -0.49056848883628845 70 112 178
-0.07974448800086975 -0.1287485659122467 0.14067263901233673 101 249 255
0.09658590704202652 0.12330350279808044 -0.4998275339603424 71 111 175
0.10392087697982788 -0.12240225076675415 -0.41842225193977356 101 248 255
-0.07473124563694 0.18611840903759003 -0.26376938819885254 101 248 255
0.007375439163297415 0.30571064352989197 -0.32461532950401306 21 143 224
-0.10899420827627182 0.07737849652767181 0.1507418304681778 218 203 242
-0.16865478456020355 0.14962154626846313 0.2285224050283432 214 202 239
-0.1392667442560196 -0.0998658835887909 0.03650306537747383 20 143 225
-0.17441612482070923 -0.30098170042037964 0.25681188702583313 21 143 224
-0.12393546849489212 -0.41719383001327515 0.20391453802585602 21 143 224
-0.003110625548288226 -0.06706229597330093 0.10653037577867508 21 143 225
0.1181923970580101 -0.09626378118991852 0.07397009432315826 21 143 224
-0.04918241500854492 -0.09449460357427597 -0.495733380317688 71 111 175
0.09713298827409744 -0.2037069946527481 0.2556675672531128 101 249 255
0.1170632615685463 -0.02910931035876274 -0.06988310068845749 211 201 236
0.06305404752492905 -0.17739178240299225 -0.4284779727458954 71 111 175
0.1416437327861786 0.0069654532708227634 0.15244130790233612 218 203 241
0.18543043732643127 0.17546874284744263 0.28379565477371216 207 194 238
-0.1109173595905304 -0.2927261292934418 -0.2620396912097931 0 255 255
-0.14268112182617188 -0.10923267900943756 0.22331634163856506 21 143 225
0.04896041378378868 0.13584379851818085 -0.28023162484169006 101 248 255
0.012995557859539986 0.2793154716491699 -0.1458703726530075 0 251 255
-0.14326034486293793 0.025803858414292336 0.2710907459259033 207 209 244
0.06142645701766014 -0.16838033497333527 -0.49748820066452026 71 111 175
0.15080982446670532 0.2089933156967163 0.19797679781913757 5 96 255
-0.13804134726524353 -0.244846910238266 -0.3446768820285797 21 143 224
0.19302913546562195 0.10397423058748245 0.16088595986366272 161 180 232
0.08154117316007614 -0.25877007842063904 0.15647876262664795 189 185 245
-0.048112861812114716 0.4238468110561371 -0.4125324487686157 0 93 255
0.09831255674362183 0.0037311515770852566 -0.06419892609119415 0 92 250
0.10640674084424973 0.0718654990196228 -0.07713036239147186 0 92 255
-0.09408682584762573 -0.37946462631225586 0.06013273075222969 0 93 255
0.019103754311800003 0.31295251846313477 -0.352130264043808 21 143 224
-0.021658601239323616 0.11498449742794037 -0.018415892496705055 101 248 255
-0.13821901381015778 0.16650426387786865 0.2086496204137802 201 195 233
0.029445376247167587 -0.04994329810142517 0.17172759771347046 21 143 224
-0.20361755788326263 0.26683342456817627 0.1564730852842331 135 176 236
-0.09238111972808838 -0.3042454123497009 -0.3270101547241211 0 254 255
0.12339773029088974 0.07597661763429642 0.10072453320026398 209 198 237
-0.03863374516367912 0.1989474594593048 -0.09946989268064499 21 143 225
0.08858248591423035 0.19286634027957916 -0.3177224099636078 100 246 255
-0.10527516901493073 -0.34854555130004883 -0.3636784255504608 3 104 251
0.15950237214565277 0.2222636491060257 0.24442626535892487 0 93 255
-0.18255963921546936 -0.31208178400993347 0.09327564388513565 21 143 224
-0.07685668766498566 -0.209383025765419 0.10081684589385986 102 250 255
-0.006248473655432463 -0.3958790898323059 0.4419494569301605 101 249 255
-0.09837581217288971 -0.1644454002380371 0.14038178324699402 102 249 255
-0.17199097573757172 -0.34452810883522034 0.13986684381961823 21 144 226
-0.14849837124347687 0.16806605458259583 0.13455942273139954 166 184 229
-0.11398996412754059 0.0060742683708667755 0.06798844784498215 218 203 241
0.026102110743522644 -0.17431069910526276 0.3813605308532715 21 143 224
-0.13186398148536682 0.1471201479434967 0.20525650680065155 213 200 239
-0.20467181503772736 0.07773340493440628 0.24463410675525665 139 178 232
0.09535056352615356 -0.14828094840049744 0.2695922553539276 101 249 255
-0.20814338326454163 0.3003914952278137 0.1915523260831833 0 93 255
-0.08750131726264954 0.10393872112035751 -0.09871429204940796 100 249 254
-0.058358389884233475 -0.11169607937335968 -0.01210951991379261 71 111 176
-0.09634477645158768 0.09580662846565247 0.0417378731071949 196 190 232
0.18691547214984894 0.0827927514910698 0.31179359555244446 214 201 240
-0.002087770262733102 -0.3530288636684418 0.4124293625354767 99 255 255
-0.14975188672542572 0.18249516189098358 0.25543421506881714 201 195 235
0.0730179101228714 0.22651083767414093 -0.444263219833374 101 248 255
-0.07868179678916931 -0.4119955599308014 0.2313445657491684 21 143 224
0.03733368217945099 -0.11556927114725113 0.3579549193382263 21 143 224
-0.12154394388198853 0.06444966793060303 0.09053963422775269 201 196 236
-0.10245086997747421 -0.26137465238571167 -0.01633439026772976 0 93 255
0.17857898771762848 0.08268479257822037 0.33009690046310425 209 198 237
-0.054233621805906296 0.06498336791992188 -0.18770013749599457 101 248 255
-0.0020231325179338455 0.361426442861557 -0.37783363461494446 21 143 224
0.013385910540819168 -0.3326728940010071 0.341908723115921 95 239 252
-0.1884010285139084 -0.15951630473136902 -0.02876279130578041 0 251 255
-0.010913917794823647 -0.3667730689048767 0.39690476655960083 72 204 238
0.0054766954854130745 0.20682229101657867 -0.006894060410559177 26 142 220
-0.006794740911573172 -0.39290761947631836 0.454144686460495 87 226 247
-0.02357727289199829 -0.11929995566606522 -0.4477872848510742 101 249 255
-0.17678216099739075 -0.36935752630233765 -0.31537333130836487 21 143 224
0.09084925800561905 0.08020412176847458 -0.06873748451471329 101 250 255
-0.13018475472927094 0.1209462359547615 0.22102467715740204 217 203 241
0.02703144960105419 0.048335425555706024 -0.13104507327079773 101 248 255
-0.1192745715379715 0.19350354373455048 -0.4925154745578766 70 111 175
-0.02456076443195343 -0.3581981360912323 0.10305392742156982 101 248 255
-0.09144240617752075 -0.12055189162492752 -0.36299148201942444 102 249 255
0.009873335249722004 0.3006286025047302 -0.10330706089735031 0 98 255
0.05032150074839592 0.14061708748340607 -0.37888044118881226 101 248 255
-0.09720432758331299 -0.010397848673164845 -0.016180792823433876 213 201 239
0.011450002901256084 0.29340341687202454 -0.17666813731193542 0 251 255
0.08246967941522598 -0.10006238520145416 0.3179226517677307 102 250 255
-0.009236825630068779 -0.07122013717889786 -0.15116862952709198 101 249 255
-0.1685623973608017 0.13473328948020935 0.3303639888763428 200 194 236
-0.07098692655563354 0.23929813504219055 -0.17872539162635803 21 143 224
0.19282177090644836 0.11679612100124359 0.3184557259082794 207 198 236
0.23920366168022156 0.35646486282348633 0.24612653255462646 134 171 234
0.060766320675611496 -0.06145109981298447 0.30129939317703247 21 143 224
-0.04152311384677887 -0.07610148936510086 -0.41630005836486816 100 243 253
-0.09525693207979202 -0.36222174763679504 0.30739209055900574 21 143 224
-0.020944006741046906 -0.21880356967449188 0.0514160580933094 101 249 255
-0.07039891183376312 0.22840161621570587 -0.48874640464782715 71 111 175
-0.13993404805660248 -0.3346608877182007 -0.07632491737604141 0 251 255
-0.05972893536090851 0.048369694501161575 -0.020919186994433403 101 249 255
-0.0293072871863842 0.19370785355567932 -0.47454673051834106 71 112 176
-0.09057740122079849 0.13131533563137054 -0.39795050024986267 101 251 255
-0.1169576495885849 0.08497458696365356 0.07673999667167664 187 186 228
-0.19620242714881897 -0.2614321708679199 0.17692828178405762 21 144 228
0.05931037664413452 -0.06059235334396362 -0.3026972711086273 101 248 255
0.1429094672203064 -0.07390634715557098 -0.0838085487484932 0 253 255
-0.17745573818683624 0.07534012198448181 0.16678793728351593 0 93 255
-0.13941381871700287 0.021116720512509346 0.2627735137939453 218 203 241
-0.05365636572241783 -0.15595011413097382 -0.007781073916703463 99 242 251
-0.10766319930553436 -0.07799872010946274 -0.09927905350923538 220 203 241
-0.010847469791769981 -0.3337526023387909 0.0749843493103981 101 248 255
0.03230347856879234 0.20697136223316193 -0.4758974313735962 71 111 175
0.08904816210269928 -0.11324206739664078 0.36177852749824524 99 251 255
-0.1099003404378891 0.4870503544807434 -0.2723412811756134 0 255 255
0.03095039166510105 0.16907012462615967 -0.3437981903553009 99 243 252
0.010875449515879154 0.2866367995738983 -0.29397836327552795 21 143 224
0.18125104904174805 0.11925594508647919 0.35731586813926697 191 187 229
-0.10983017086982727 0.008331257849931717 0.1686341017484665 213 199 241
0.24292027950286865 0.24233397841453552 0.4520958364009857 137 179 232
-0.10714013874530792 0.05923081189393997 -0.09017160534858704 135 178 236
-0.007490414194762707 -0.27183449268341064 0.38031595945358276 22 142 222
-0.003141093300655484 -0.15411219000816345 -0.15286943316459656 98 244 252
-0.20029184222221375 -0.2063065618276596 0.06283780932426453 0 93 255
0.19499289989471436 0.2746204435825348 0.20600154995918274 34 103 253
-0.10639484971761703 -0.2265426516532898 -0.03201422095298767 0 93 255
-0.035880882292985916 -0.07251450419425964 -0.2282133400440216 101 252 255
0.09015615284442902 -0.09516012668609619 -0.11812667548656464 214 201 239
-0.08898794651031494 -0.10344145447015762 0.25783345103263855 101 249 255
0.207345113158226 0.288906991481781 0.22944611310958862 138 179 233
0.19754871726036072 0.26954254508018494 0.22882257401943207 137 173 231
0.20388829708099365 0.05443292856216431 0.2665397524833679 138 180 233
0.08935002982616425 -0.03726955130696297 -0.007975488901138306 218 204 241
-0.038343969732522964 -0.07163740694522858 -0.35225602984428406 101 248 255
-0.10877164453268051 0.006595113314688206 0.03976355865597725 214 202 240
-0.04507286101579666 0.3423793613910675 -0.1650727093219757 20 143 224
-0.04386930912733078 0.14139331877231598 -0.2952178120613098 101 249 255
0.06315631419420242 -0.11207226663827896 0.32979342341423035 21 142 223
-0.19226396083831787 0.10753031820058823 0.16382962465286255 171 184 231
-0.19211000204086304 0.11148449033498764 0.31556692719459534 212 201 239
0.15531425178050995 -0.01394383143633604 0.2150207906961441 214 203 242
-0.17580546438694 -0.32056060433387756 -0.27636271715164185 21 143 224
0.10049919039011002 0.08299551159143448 -0.14658814668655396 101 249 255
-0.10925107449293137 0.11524564772844315 0.10734782367944717 199 194 233
-0.145492285490036 0.06897140294313431 0.1781160682439804 217 203 241
-0.23579175770282745 0.34223827719688416 0.26852482557296753 138 179 233
-0.1140972226858139 -0.010357724502682686 0.1648721992969513 217 203 240
0.09502256661653519 0.09413181990385056 0.03619071841239929 193 189 232
-0.19652174413204193 -0.24380220472812653 0.017601044848561287 0 93 255
0.10437697917222977 0.07259709388017654 0.1251526176929474 217 203 241
-0.11317913979291916 -0.2954378128051758 -0.3743261992931366 21 143 224
0.021309832111001015 -0.21059022843837738 -0.0290511604398489 101 248 255
-0.03937200829386711 -0.2726704478263855 0.4292357265949249 255 255 118
-0.014485846273601055 0.3084254562854767 -0.052816201001405716 0 93 255
0.07473849505186081 0.16154982149600983 -0.21366660296916962 102 250 255
-0.03328418359160423 0.3834523856639862 -0.40158969163894653 0 250 255
-0.06009770184755325 -0.07807829231023788 0.2640272378921509 21 144 226
0.11188430339097977 -0.00683696148917079 -0.11260602623224258 0 93 255
-0.12133636325597763 -0.12620994448661804 0.18390314280986786 20 143 224
-0.056022610515356064 -0.11092329770326614 0.34356844425201416 21 143 224
-0.10449659824371338 -0.31997150182724 -0.27482813596725464 1 245 253
-0.16639402508735657 -0.3316015601158142 -0.23332393169403076 21 143 224
-0.15143515169620514 -0.10146640986204147 0.1666392982006073 0 92 255
-0.13054770231246948 -0.11009253561496735 -0.020427364856004715 21 144 226
-0.06504631787538528 0.4184900224208832 -0.3042025566101074 0 93 255
0.192114919424057 0.16137900948524475 0.3110816180706024 199 195 234
-0.051162563264369965 0.1401306539773941 -0.37479346990585327 101 249 255
-0.12817461788654327 0.12381263822317123 0.0994257852435112 174 184 229
0.07898185402154922 -0.1317407488822937 0.07504032552242279 0 252 255
0.09358964115381241 0.12591440975666046 -0.21603654325008392 101 248 255
-0.11833447217941284 -0.03522619232535362 -0.09374566376209259 213 200 239
-0.1660829484462738 0.18355682492256165 0.3172513246536255 0 93 255
0.02892526052892208 -0.21969154477119446 -0.09552937000989914 71 111 175
-0.21710266172885895 0.31094545125961304 0.2457767277956009 138 179 233
-0.057678304612636566 0.18911521136760712 -0.016107207164168358 21 143 224
0.13818714022636414 -0.1147913709282875 -0.03162766993045807 0 252 255
-0.1891065537929535 -0.2870715856552124 0.06587362289428711 18 135 231
-0.03902503475546837 0.13527309894561768 -0.20876315236091614 101 248 255
0.03555290028452873 0.18159626424312592 -0.26006633043289185 103 250 255
-0.10197688639163971 0.0990634337067604 -0.48569366335868835 71 111 174
-0.14665119349956512 -0.3938582241535187 0.10588539391756058 21 143 224
0.16158288717269897 0.01966528594493866 0.17673687636852264 218 204 242
-0.0920274406671524 0.07337211817502975 0.04830258712172508 212 199 238
-0.012326187454164028 -0.21807673573493958 0.001544255530461669 101 248 255
-0.0825904980301857 -0.14650560915470123 0.35284245014190674 21 143 224
-0.21045789122581482 0.2657158374786377 0.3334718346595764 138 177 231
-0.012803425081074238 -0.059576041996479034 0.16780506074428558 21 143 224
-0.04826817661523819 -0.15140651166439056 0.37537384033203125 17 142 222
0.10199886560440063 0.09381799399852753 -0.018701300024986267 147 181 231
0.010921959765255451 -0.37354370951652527 0.4258522689342499 97 253 255
0.19637905061244965 0.1340917944908142 0.33208367228507996 184 185 228
-0.06361956149339676 0.29440319538116455 -0.028857704252004623 21 147 230
-0.22578682005405426 0.24923470616340637 0.4273168742656708 0 93 255
-0.11184052377939224 -0.1741490662097931 -0.47361356019973755 70 111 176
-0.2007639855146408 0.25322577357292175 0.3090708255767822 93 145 242
0.15502271056175232 0.17939941585063934 0.1449074000120163 155 174 232
-0.06676003336906433 0.3582001030445099 -0.29525142908096313 21 143 225
-0.03753066435456276 0.13519664108753204 -0.24011853337287903 101 251 255
-0.019270967692136765 0.24556495249271393 -0.42831137776374817 0 252 255
-0.09808480739593506 0.08742376416921616 -0.20067808032035828 102 247 253
-0.14753806591033936 0.2022026926279068 0.1908692568540573 38 105 251
-0.09606093168258667 0.05109433829784393 -0.008507813327014446 183 185 227
-0.19485604763031006 -0.17541371285915375 0.09577571600675583 0 93 255
-0.13381460309028625 -0.4070301949977875 -0.220829576253891 21 143 224
-0.10349999368190765 0.21655993163585663 -0.46787330508232117 100 249 255
-0.04204064607620239 0.20169368386268616 -0.31766799092292786 99 244 255
-0.06849802285432816 -0.2767355740070343 0.1506577581167221 0 0 0
0.17769543826580048 0.16003048419952393 0.25989213585853577 215 202 239
-0.09798892587423325 -0.08807495981454849 -0.04844500496983528 214 206 241
-0.05496092140674591 -0.17157310247421265 0.0625271275639534 102 249 255
0.12797091901302338 0.1087041050195694 0.10756011307239532 194 190 231
-0.032363761216402054 0.13921941816806793 -0.061854008585214615 101 249 255
0.2023596465587616 0.2199770212173462 0.3928478956222534 0 93 255
0.04039204493165016 0.1205570176243782 -0.19581933319568634 101 248 255
-0.07174868136644363 0.24793866276741028 -0.22115390002727509 21 143 224
-0.10551930218935013 0.17155443131923676 -0.34796014428138733 101 248 255
0.15945656597614288 0.20597192645072937 0.27023911476135254 0 93 255
-0.14475330710411072 0.1843879073858261 0.21600115299224854 188 187 229
-0.12165328860282898 0.1484869420528412 0.13636453449726105 185 185 229
-0.08047651499509811 0.3026767671108246 -0.29057615995407104 21 143 224
-0.08735640347003937 0.4229790270328522 -0.3285636007785797 0 93 255
-0.16975027322769165 0.041624583303928375 0.24111290276050568 218 204 242
0.0047586653381586075 -0.3080941140651703 0.35851338505744934 20 144 225
0.17891347408294678 0.2160997837781906 0.32788845896720886 0 93 255
-0.190521240234375 -0.15496259927749634 0.06281213462352753 0 246 255
-0.03288773447275162 -0.3982737362384796 0.26024383306503296 21 143 224
-0.06921827793121338 0.3353124260902405 -0.2648641765117645 20 143 224
0.08551608771085739 -0.11805345863103867 -0.10866910964250565 102 249 255
0.04762524366378784 -0.1275736540555954 -0.2715590000152588 101 248 255
0.028439868241548538 0.1729068160057068 -0.48025721311569214 71 111 175
0.0014563121367245913 0.12777945399284363 -0.0810994878411293 102 250 255
0.13401786983013153 -0.11582294851541519 -0.06941904127597809 0 98 255
-0.09486176073551178 0.40532761812210083 -0.3232676088809967 21 143 225
0.11561477184295654 0.06516677141189575 0.04794544354081154 212 200 239
-0.035716067999601364 0.4205781817436218 -0.3482098877429962 0 94 255
-0.141375333070755 -0.4510994255542755 -0.1866363286972046 21 143 224
0.15772637724876404 0.14507044851779938 0.1911235749721527 213 193 237
-0.13136012852191925 -0.47437214851379395 -0.2740389406681061 21 145 229
0.023068614304065704 -0.1002243384718895 -0.3298415541648865 101 248 255
-0.11026682704687119 -0.30301588773727417 -0.16240648925304413 0 251 255
-0.11602228879928589 -0.18644605576992035 -0.18405330181121826 0 93 255
-0.0855703130364418 -0.11970795691013336 -0.10281027853488922 125 243 254
0.16906429827213287 0.23203200101852417 0.11973173171281815 0 93 255
-0.11814435571432114 0.4710288941860199 -0.33542779088020325 0 249 255
-0.02389688231050968 -0.09389501065015793 -0.34003761410713196 101 249 255
-0.0298402551561594 0.17681682109832764 -0.40522781014442444 101 249 255
-0.17790114879608154 -0.4781182110309601 -0.18182843923568726 21 143 224
0.08104521036148071 0.17729972302913666 -0.2571972608566284 101 249 255
-0.10992054641246796 -0.21826305985450745 -0.07589539140462875 0 93 255
0.06085394695401192 -0.17008072137832642 -0.028950544074177742 255 165 237
-0.18224316835403442 -0.3088291883468628 0.062429167330265045 20 141 225
-0.026003403589129448 0.2037997841835022 -0.2651294767856598 21 142 223
-0.15623688697814941 0.09253311157226562 0.20407432317733765 217 203 241
-0.17514458298683167 -0.2749788165092468 -0.24113965034484863 21 143 224
0.030704963952302933 -0.12410067021846771 -0.22147823870182037 101 248 255
-0.17171673476696014 -0.43716615438461304 -0.2890341281890869 21 143 224
0.0045876940712332726 0.32973751425743103 -0.41487789154052734 20 143 224
-0.18734484910964966 -0.25770896673202515 -0.04589337483048439 0 251 255
-0.07740273326635361 0.44766339659690857 -0.28356894850730896 0 239 255
0.022292833775281906 -0.08287110179662704 0.012172769755125046 20 143 224
0.124155193567276 0.1579180508852005 -0.45086243748664856 100 251 255
-0.07834214717149734 -0.17312000691890717 -0.41759538650512695 71 111 175
0.06758934259414673 -0.05465000122785568 0.1293243020772934 21 143 224
-0.19376806914806366 0.17616230249404907 0.36735495924949646 0 93 255
-0.09843411296606064 -0.3165481686592102 -0.02003687061369419 0 252 255
0.056606609374284744 -0.1539602279663086 -0.40959012508392334 101 248 255
-0.1505519598722458 0.15252043306827545 0.15569733083248138 190 188 230
0.00868199486285448 -0.22033512592315674 0.027691008523106575 101 248 255
0.08864396810531616 6.419730198103935e-05 -0.13307881355285645 0 93 255
-0.13334578275680542 0.1035592183470726 0.12810254096984863 206 197 236
0.2139454334974289 0.21711793541908264 0.4218723177909851 0 93 255
-0.15031109750270844 0.1298779845237732 0.17045798897743225 212 200 239
-0.1774781495332718 -0.14506986737251282 0.2238146960735321 21 143 225
-0.02384057641029358 -0.10862428694963455 -0.2863343060016632 101 249 255
0.11857464909553528 0.09376201033592224 0.18485760688781738 217 203 241
0.11590604484081268 0.12251131981611252 0.1451970636844635 208 198 237
-0.11328189074993134 0.10513239353895187 0.03985247761011124 111 150 240
-0.1124453917145729 -0.30968913435935974 -0.20462428033351898 0 252 255
0.10018102079629898 -0.1411869376897812 0.015059057623147964 0 97 255
-0.19078463315963745 -0.22067029774188995 -0.09031432121992111 0 252 255
-0.1965177208185196 0.28079479932785034 0.27922362089157104 0 93 253
0.21092432737350464 0.3285849690437317 0.2575460970401764 0 93 255
-0.07420241087675095 -0.14978256821632385 -0.1407652348279953 101 249 255
-0.08572172373533249 -0.07279296964406967 -0.4027557671070099 101 248 255
0.09148281812667847 -0.12824508547782898 -0.05939846858382225 219 203 240
-0.10094854980707169 0.04649466648697853 -0.04783131554722786 0 92 252
0.109529048204422 0.2095496952533722 -0.45942506194114685 99 243 251
0.13453522324562073 0.01172928512096405 0.11645130068063736 218 203 241
0.1519962102174759 0.06906812638044357 0.15088389813899994 8 96 255
0.042772553861141205 -0.24459904432296753 0.0825347751379013 101 249 255
-0.04309059679508209 0.21912501752376556 -0.35201144218444824 0 92 255
-0.06054585054516792 -0.28891170024871826 0.3705974817276001 21 143 225
0.0532197430729866 -0.16458962857723236 0.042496535927057266 101 249 255
0.0029577966779470444 0.22448746860027313 -0.29720354080200195 21 143 224
-0.013316784054040909 0.2826383113861084 -0.021533742547035217 2 99 252
-0.025064771994948387 -0.19650135934352875 0.39088183641433716 21 143 224
0.06341225653886795 -0.17668788135051727 -0.08412730693817139 101 249 255
-0.2057471126317978 0.2872704267501831 0.27840694785118103 139 179 231
0.03554938733577728 -0.2082349956035614 0.05693874880671501 101 248 255
-0.18776173889636993 0.029089460149407387 0.2248031049966812 0 94 255
-0.15930061042308807 0.22065678238868713 0.21955886483192444 2 93 253
-0.13830351829528809 -0.10138705372810364 0.06913229078054428 20 143 224
-0.13559158146381378 -0.16551631689071655 0.33468106389045715 21 143 224
0.023694250732660294 -0.11700771003961563 -0.41713330149650574 101 249 255
-0.03682561591267586 -0.3673250377178192 0.31440141797065735 21 143 224
-0.19624121487140656 0.2673591077327728 0.22796015441417694 136 175 233
0.10747814178466797 0.10613016039133072 0.007363016251474619 0 90 246
-0.10493061691522598 -0.36192217469215393 -0.34810882806777954 1 96 253
0.18644610047340393 0.24563604593276978 0.23070314526557922 0 93 255
0.11214876174926758 0.011352437548339367 -0.0837615355849266 0 93 255
0.16001363098621368 0.15967604517936707 0.30890539288520813 0 92 255
-0.18947674334049225 0.09141776710748672 0.3346269726753235 205 196 236
0.06684815883636475 -0.054966118186712265 0.21098679304122925 21 143 224
0.006033079698681831 0.31832948327064514 -0.27139708399772644 0 251 255
0.009843612089753151 0.2397920936346054 -0.10762675106525421 0 252 255
-0.09506705403327942 0.47877365350723267 -0.39150410890579224 0 249 255
-0.18792346119880676 -0.17046624422073364 0.18700703978538513 20 142 225
-0.10207919776439667 -0.11017900705337524 0.34128132462501526 101 249 255
-0.03194465488195419 -0.17677617073059082 -0.4774155020713806 71 111 175
-0.14610245823860168 0.1811980903148651 0.22683516144752502 196 191 232
0.10471122711896896 0.18722951412200928 -0.36903151869773865 101 248 255
-0.06807605177164078 0.3296435475349426 -0.23662805557250977 21 143 224
-0.10571344941854477 -0.25974729657173157 -0.36168161034584045 0 93 254
-0.015109366737306118 0.34342753887176514 -0.2504121661186218 0 251 255
-0.01017471868544817 0.0064789424650371075 -0.004098498262465 101 248 255
-0.05391845852136612 -0.25990453362464905 0.0928572490811348 101 248 255
0.08527886122465134 -0.06423626095056534 0.25062957406044006 21 143 224
0.06774042546749115 0.10866484045982361 -0.45745062828063965 71 111 175
-0.16987824440002441 -0.20797115564346313 0.30171358585357666 21 143 224
-0.09306519478559494 -0.005233610048890114 0.01709274761378765 218 204 242
-0.1373615711927414 -0.388496458530426 -0.16117648780345917 21 143 224
0.11396709084510803 -0.13785944879055023 0.017616286873817444 0 252 255
0.08568666130304337 -0.06191297993063927 -0.11262419074773788 215 202 240
0.09919584542512894 -0.007129928562790155 -0.03460758179426193 172 181 230
-0.13960996270179749 -0.42222562432289124 -0.1637234389781952 21 143 224
0.09165368974208832 0.10655256360769272 -0.1587427854537964 101 248 255
-0.07237917929887772 0.15885089337825775 -0.20610032975673676 101 248 255
0.1725822389125824 0.08658604323863983 0.24600750207901 217 203 241
-0.1597137302160263 -0.27611565589904785 0.307104229927063 21 143 224
0.12223096191883087 -0.019450988620519638 0.16674602031707764 216 203 241
-0.1161934956908226 0.12566815316677094 0.1422407627105713 206 197 236
0.04458904638886452 -0.2519104480743408 0.37909093499183655 21 145 225
-0.1124483123421669 0.01653941161930561 -0.1049223393201828 0 92 252
-0.1481604278087616 -0.3655264675617218 0.2511023283004761 21 143 224
0.23041710257530212 0.3353976011276245 0.24569396674633026 138 179 233
-0.028964227065443993 -0.09713729470968246 -0.46996164321899414 98 237 250
0.0030080571305006742 0.3363553285598755 -0.3888826072216034 1 246 255
-0.05596643686294556 0.18407918512821198 -0.22539114952087402 99 251 255
-0.19249211251735687 0.10616855323314667 0.35414448380470276 176 186 230
-0.10429137945175171 0.07207432389259338 0.0020854375325143337 165 184 231
