-0.3063623011112213 0.04519735649228096 0.12403180450201035 218 151 51
0.10418029874563217 0.3484228253364563 0.07316936552524567 136 78 36
-0.18210649490356445 0.07300904393196106 -0.2648417353630066 67 117 154
-0.23076722025871277 0.013213679194450378 0.36400675773620605 217 152 51
-0.24701999127864838 0.05807483568787575 -0.3374638557434082 187 173 168
-0.25921860337257385 0.1137576475739479 -0.31293240189552307 179 163 156
0.020504867658019066 -0.15814124047756195 0.3228633999824524 109 61 27
-0.07821080088615417 -0.36606237292289734 0.14694739878177643 231 138 36
0.021460818126797676 0.3824355900287628 0.18937084078788757 136 78 36
0.05511203408241272 -0.35018911957740784 0.10299552232027054 234 139 34
-0.145737886428833 0.04845159500837326 -0.17892704904079437 57 110 150
0.1611088514328003 0.008751746267080307 0.4383125901222229 136 78 36
0.08266688883304596 -0.03998108208179474 -0.1554124355316162 63 113 150
0.06553100049495697 0.1290687620639801 -0.10668167471885681 57 109 147
-0.2560935616493225 0.10553822666406631 -0.30746254324913025 170 149 141
-0.03497777134180069 -0.03273359686136246 -0.1129799410700798 57 107 144
-0.06480046361684799 -0.03672138974070549 0.45700064301490784 136 78 36
0.2625802457332611 0.047304678708314896 -0.3371175229549408 201 191 188
-0.2986183166503906 0.014061049558222294 0.1810620278120041 255 64 64
0.12619821727275848 0.026216015219688416 -0.15875378251075745 64 112 149
-0.0823005735874176 0.08862552791833878 -0.38222020864486694 228 135 36
0.23560352623462677 -0.0050387694500386715 0.35191330313682556 217 152 51
-0.054531000554561615 0.22669467329978943 -0.19204530119895935 63 115 152
0.1380663365125656 -0.23861734569072723 0.07342688739299774 232 138 36
0.1502026617527008 0.0009832833893597126 -0.3083971440792084 136 78 36
0.011981670744717121 0.2870708107948303 -0.21631425619125366 136 78 36
0.03753950074315071 -0.10730981826782227 -0.2557985484600067 53 105 143
0.22772188484668732 0.25798845291137695 0.26401570439338684 136 78 36
-0.30296966433525085 0.023467781022191048 0.15477268397808075 255 64 64
0.026518376544117928 -0.22858484089374542 0.04124145582318306 232 138 36
-0.18906040489673615 0.046979378908872604 -0.2196701318025589 141 79 35
-0.11457280814647675 0.19226543605327606 -0.22134384512901306 60 109 147
0.09671097993850708 -0.32443156838417053 0.08724402636289597 231 138 36
-0.2331201583147049 0.03275090828537941 -0.28852662444114685 143 91 62
-0.15619421005249023 -0.013492165133357048 -0.22408147156238556 56 107 145
0.060746870934963226 0.15562261641025543 -0.1264377385377884 59 109 147
0.25176486372947693 0.16719205677509308 -0.28703010082244873 150 114 98
-0.045392442494630814 0.266140341758728 -0.028824208304286003 136 78 36
-0.12776638567447662 0.06546255201101303 -0.05878738686442375 213 145 50
-0.13348516821861267 0.3376323878765106 0.25595033168792725 136 78 36
-0.07815750688314438 -0.23095965385437012 0.04416649416089058 231 138 36
0.06642229110002518 0.0007408364326693118 -0.10203392803668976 63 113 150
0.23679764568805695 0.10348878055810928 -0.018303727731108665 217 152 51
0.08903340995311737 0.26202768087387085 -0.020606959238648415 136 78 36
-0.25849634408950806 0.05367409437894821 -0.35749900341033936 214 213 207
-0.060319043695926666 -0.0001989017182495445 -0.09393413364887238 59 109 147
-0.2611556053161621 0.1748800128698349 -0.3305698037147522 180 164 160
-0.26764562726020813 0.13827915489673615 -0.3352719843387604 221 216 214
0.23927189409732819 0.05807095021009445 -0.32217469811439514 166 141 132
0.30606260895729065 0.056001100689172745 0.13727745413780212 217 152 51
-0.06103530153632164 -0.05953079089522362 -0.48141801357269287 236 140 36
-0.19047437608242035 0.3133946359157562 0.17893539369106293 136 77 36
-0.24063710868358612 0.20172908902168274 -0.30134111642837524 140 91 64
-0.24268387258052826 0.05658223479986191 -0.283633291721344 139 90 61
0.07756752520799637 -0.020337935537099838 -0.33974727988243103 252 236 231
0.029852623119950294 -0.3488224446773529 0.11739481985569 231 138 36
-0.27222293615341187 -0.058932751417160034 0.23522932827472687 242 99 59
-0.2495967596769333 -0.11586344242095947 0.11189252138137817 254 70 63
-0.2655300199985504 0.15477803349494934 0.28008633852005005 136 77 35
-0.10567721724510193 0.3023066520690918 0.01308822724968195 136 78 36
-0.0642741471529007 0.37557199597358704 0.1914357990026474 136 78 36
0.07052971422672272 0.11386438459157944 -0.06863145530223846 55 109 148
0.24461416900157928 0.19577424228191376 -0.27271518111228943 138 86 53
-0.2785818576812744 0.04749680683016777 0.265299528837204 217 152 51
-0.21157750487327576 0.07805349677801132 -0.036101728677749634 217 152 51
0.2795514464378357 -0.07164184749126434 0.1586548388004303 255 64 64
0.014349413104355335 0.17098982632160187 -0.11380112171173096 61 109 146
-0.17058320343494415 -0.13857856392860413 0.321216881275177 199 139 46
-0.24910016357898712 -0.10944559425115585 0.09468111395835876 244 92 60
0.30485406517982483 0.028609909117221832 0.11480379104614258 246 89 60
-0.18994711339473724 0.2817039489746094 0.06398221105337143 136 78 36
0.10015841573476791 0.07573017477989197 -0.061559561640024185 129 79 52
0.05243073031306267 0.13594524562358856 -0.09775543957948685 53 105 142
0.011518632993102074 -0.09892570972442627 0.4162977933883667 136 78 36
0.00838529597967863 -0.01680416613817215 -0.07571353763341904 56 104 143
-0.15914508700370789 0.3209652304649353 0.26407763361930847 136 78 36
0.0721789002418518 0.16107438504695892 -0.3355121612548828 136 78 36
-0.2052617222070694 -0.16723878681659698 0.18295840919017792 1 1 0
0.1517205387353897 -0.13279463350772858 0.3411391079425812 217 152 51
0.25059041380882263 0.10017113387584686 0.33114224672317505 223 156 52
-0.08824507892131805 -0.1703917235136032 0.03780071809887886 218 152 51
0.16312658786773682 0.22739732265472412 0.39643925428390503 136 78 36
-0.2361549288034439 0.14183519780635834 0.3485182225704193 136 78 36
0.18497340381145477 0.31545940041542053 0.20413367450237274 136 78 36
-0.1495451033115387 -0.3149058222770691 0.13869549334049225 234 139 35
-0.17015469074249268 -0.17764386534690857 0.2220108062028885 0 0 0
-0.03619704395532608 -0.17073051631450653 0.288626104593277 91 50 21
0.18008330464363098 0.2849605977535248 0.05565797537565231 136 78 36
-0.1770501583814621 0.200076624751091 0.4012673497200012 136 78 36
0.2533889710903168 0.15406617522239685 -0.2915794849395752 155 124 111
0.3037717640399933 0.09324372559785843 0.09711571037769318 217 152 51
-0.25297507643699646 -0.11151710152626038 0.22393439710140228 219 149 50
0.28083911538124084 -0.0352681465446949 0.22554323077201843 255 65 64
-0.10370796918869019 -0.2364472895860672 0.14360229671001434 232 138 36
0.1431514322757721 0.14828354120254517 0.45171070098876953 140 77 34
-0.2169802337884903 0.28562143445014954 0.21441583335399628 136 78 36
-0.06558556109666824 0.07072311639785767 -0.4587056338787079 231 138 35
0.25986579060554504 0.10596683621406555 -0.34800899028778076 208 200 198
-0.09847688674926758 0.3182809352874756 0.3384956121444702 136 78 36
0.04772187024354935 -0.2822130620479584 0.05545174703001976 232 138 36
-0.04510507732629776 -0.024430280551314354 -0.05633244663476944 217 152 51
-0.2500303387641907 -0.12403983622789383 0.19059012830257416 238 118 57
-0.28283968567848206 0.1017913669347763 0.24853308498859406 217 152 51
0.30228716135025024 0.02738274447619915 0.08761251717805862 220 149 51
-0.17783623933792114 0.029823556542396545 -0.2818021774291992 58 109 147
0.04188612103462219 0.24741131067276 -0.26923152804374695 136 78 36
0.23788659274578094 0.21216502785682678 0.042831480503082275 136 78 36
-0.017578598111867905 -0.3364354074001312 0.1256459802389145 231 138 36
0.152232825756073 -0.037155430763959885 -0.263739675283432 59 110 147
-0.24847973883152008 0.04670286923646927 0.33899158239364624 215 151 50
-0.30134454369544983 0.022860782220959663 0.08593086153268814 223 143 52
-0.033345915377140045 -0.22813007235527039 0.041395433247089386 232 138 36
-0.22170615196228027 0.22432753443717957 -0.2745729386806488 136 78 36
0.04405622556805611 0.24902048707008362 0.43717825412750244 136 78 36
-0.028796710073947906 0.10312432795763016 -0.4829644560813904 231 138 36
-0.07324867695569992 0.10233838856220245 -0.43433454632759094 231 138 35
0.2987511456012726 0.12123597413301468 0.09220390021800995 217 152 51
0.038559336215257645 0.012642921879887581 0.48402634263038635 136 78 36
0.04294310510158539 0.20792941749095917 -0.16870975494384766 61 113 152
0.059447769075632095 0.20380041003227234 -0.04828527569770813 136 78 36
-0.1750677227973938 0.09171536564826965 -0.29241013526916504 56 110 151
-0.06181495636701584 0.24567405879497528 -0.2169656604528427 63 111 148
-0.026498213410377502 0.07860182970762253 -0.49545004963874817 231 138 35
-0.04332364723086357 0.022155188024044037 0.48582181334495544 136 78 36
0.18145619332790375 0.0790611058473587 -0.2652420699596405 57 109 148
-0.1334945112466812 -0.08962298929691315 0.39953961968421936 136 78 36
0.2679562568664551 0.13139785826206207 -0.3289208710193634 210 202 199
-0.0027790891472250223 0.27113980054855347 -0.25184279680252075 139 79 36
0.3023975193500519 0.06714825332164764 0.17266128957271576 217 152 51
-0.1259584277868271 -0.11066751927137375 0.3813503086566925 217 150 51
0.2217911183834076 0.21333877742290497 -0.2488647997379303 139 79 36
-0.057614799588918686 0.3534815311431885 0.04712080582976341 136 78 35
0.11244820058345795 -0.017563773319125175 -0.16465157270431519 60 113 151
-0.09313741326332092 0.16495175659656525 -0.16254141926765442 61 111 149
0.023802220821380615 -0.03492790088057518 -0.11034063249826431 59 111 148
0.29720839858055115 -0.016142621636390686 0.15329362452030182 255 64 64
0.29149624705314636 -0.007513298187404871 0.20290575921535492 255 64 64
-0.1413690745830536 -0.02306486666202545 -0.04471277818083763 217 152 51
-0.1026582345366478 0.11120578646659851 -0.13699135184288025 63 113 151
-0.07588017731904984 -0.08339113742113113 -0.2106100171804428 51 106 146
-0.24110738933086395 0.2577665448188782 0.20746009051799774 136 78 36
0.2459479421377182 0.045465484261512756 -0.3387608826160431 188 174 169
0.08894341439008713 0.16210973262786865 0.473122239112854 136 78 36
-0.26415205001831055 -0.06646387279033661 0.062193404883146286 237 110 57
-0.10262498259544373 -0.13585782051086426 0.3523274064064026 219 153 51
0.005906257778406143 0.36882734298706055 0.2577466666698456 136 78 36
0.04429405927658081 -0.04330747202038765 -0.47556740045547485 231 139 35
-0.2292475402355194 0.14524775743484497 -0.28666868805885315 136 78 36
-0.301061749458313 0.005011176690459251 0.10570649057626724 255 64 64
-0.24802130460739136 0.20693983137607574 -0.2804410457611084 144 102 82
-0.13134883344173431 -0.32690542936325073 0.15484976768493652 234 139 37
-0.011754314415156841 -0.062055282294750214 -0.3215382993221283 255 255 255
-0.10037264227867126 -0.04892575740814209 -0.49712562561035156 231 138 36
0.04936603084206581 -0.18528962135314941 0.23809708654880524 79 43 17
0.0728064551949501 0.3360752463340759 0.030740275979042053 136 78 36
0.04554829001426697 0.2642764449119568 -0.21614883840084076 137 78 35
-0.25985273718833923 0.2322182059288025 0.14067724347114563 136 78 36
0.1970745027065277 0.25595635175704956 0.32996320724487305 142 79 35
-0.004886471200734377 0.04572346433997154 0.4949151575565338 136 78 36
0.2153845727443695 0.15896953642368317 -0.21771739423274994 136 78 36
0.15372656285762787 0.0258141178637743 -0.3189695179462433 136 78 36
-0.09740401804447174 0.1464877724647522 -0.12113671004772186 51 106 146
-0.08346982300281525 -0.34592676162719727 0.12835560739040375 232 138 36
0.20562143623828888 0.07566887140274048 0.4053010046482086 136 78 36
0.21275705099105835 0.0460682287812233 -0.26463937759399414 136 78 36
-0.2796421945095062 -0.046198196709156036 0.07532724738121033 255 64 64
-0.3040715754032135 0.043339598923921585 0.1594228446483612 224 136 53
-0.10251494497060776 0.09652706235647202 -0.08628835529088974 61 111 147
0.27672719955444336 -0.03661741316318512 0.05605629086494446 229 130 54
-0.11276227980852127 0.07084934413433075 -0.356929749250412 136 78 36
-0.281000018119812 0.13525420427322388 0.046061065047979355 217 152 51
0.10924075543880463 0.3623605966567993 0.15921035408973694 136 78 36
0.2432679831981659 0.20041128993034363 -0.3048989772796631 143 99 76
0.017316771671175957 0.01876966841518879 -0.491174578666687 233 138 36
0.20873840153217316 0.1511845886707306 0.388522744178772 136 78 35
0.11887296289205551 -0.061392199248075485 -0.28436821699142456 55 109 149
-0.05047811567783356 -0.061974190175533295 0.44385936856269836 136 78 36
-0.15701329708099365 -0.06766345351934433 0.40491050481796265 141 82 37
-0.20555156469345093 -0.04296461120247841 0.37852761149406433 217 152 51
0.06640941649675369 0.3710293769836426 0.21544885635375977 136 78 36
0.13247743248939514 0.16076253354549408 -0.2058049440383911 59 110 146
0.06633222103118896 -0.1391974836587906 0.35387927293777466 126 72 32
0.11178780347108841 -0.07956188172101974 0.41647711396217346 136 78 36
-0.13854993879795074 -0.24182632565498352 0.07310187071561813 231 138 36
-0.12155849486589432 -0.037016041576862335 -0.30578142404556274 255 255 255
0.009075932204723358 0.14151713252067566 -0.35842272639274597 136 78 36
0.2505154013633728 0.1971515715122223 -0.2839730679988861 148 110 93
0.07531853020191193 -0.011088341474533081 -0.12316758185625076 58 110 147
-0.019965196028351784 -0.1654939353466034 0.30484071373939514 100 56 24
-0.06437091529369354 -0.14725469052791595 0.0064591821283102036 217 152 51
-0.1743960976600647 0.11174867302179337 -0.26017463207244873 56 108 148
-0.07237003743648529 -0.05845634639263153 -0.1668568104505539 64 114 151
-0.010209290310740471 -0.10593702644109726 -0.22646597027778625 57 110 150
0.23899908363819122 -0.13381841778755188 0.12946635484695435 221 147 51
0.14102987945079803 0.02892322465777397 -0.05521358177065849 217 152 51
-0.050769124180078506 -0.1937236189842224 0.19901327788829803 72 39 15
-0.29113322496414185 0.1630750149488449 0.1246279776096344 212 146 50
-0.2436486929655075 0.08547000586986542 -0.32380008697509766 167 144 135
0.09540996700525284 -0.079142265021801 -0.22175642848014832 65 115 152
-0.18508239090442657 0.31586170196533203 0.15054936707019806 136 78 36
0.2452886402606964 0.031213363632559776 -0.30761200189590454 158 131 119
0.24781303107738495 0.17422619462013245 -0.2782337963581085 141 96 71
-0.11460313200950623 0.13520142436027527 -0.14383473992347717 123 86 74
0.17872345447540283 0.03442731127142906 -0.24770532548427582 57 109 147
0.275211900472641 0.17830519378185272 0.22889168560504913 136 78 36
-0.24005676805973053 -0.12505482137203217 0.10550157725811005 220 147 51
-0.1920556128025055 0.15290959179401398 0.4071159064769745 136 78 36
-0.08223768323659897 0.3440209627151489 0.29454687237739563 136 78 36
-0.26395419239997864 0.14051802456378937 0.021220052614808083 226 156 52
-0.08328128606081009 -0.09056531637907028 -0.24580137431621552 59 109 149
-0.13942493498325348 0.010656649246811867 -0.18094834685325623 54 106 143
0.2906915247440338 -0.017543306574225426 0.07632341980934143 255 65 64
-0.29866430163383484 0.13443918526172638 0.14538639783859253 217 152 51
0.02869943156838417 -0.09711847454309464 -0.20403893291950226 65 114 151
-0.06572471559047699 -0.273569256067276 0.05294433981180191 232 138 36
-0.2554461658000946 0.1166699156165123 -0.30347052216529846 166 143 133
-0.0438656210899353 -0.1751108467578888 0.2746467590332031 86 48 19
-0.2608371376991272 -0.08718559145927429 0.08470649272203445 255 64 64
0.08532655239105225 0.11963516473770142 -0.47627443075180054 232 138 35
-0.2684076130390167 0.21299788355827332 0.1958533376455307 136 78 36
0.11574374884366989 -0.06575264781713486 -0.033920589834451675 217 152 51
-0.12182614207267761 0.018711872398853302 -0.47391873598098755 232 140 35
0.2399410903453827 0.1851329356431961 -0.26248714327812195 135 79 37
-0.27268078923225403 0.14717154204845428 0.2622511386871338 197 132 47
0.26801541447639465 0.09756805002689362 -0.3473552465438843 237 233 233
0.14137649536132812 0.1748267412185669 -0.2550179362297058 61 112 150
0.25943100452423096 0.17439505457878113 -0.30437734723091125 173 154 147
-0.13493181765079498 -0.19317059218883514 0.14223255217075348 220 149 48
-0.11760703474283218 0.15600374341011047 -0.31636911630630493 136 78 36
-0.14184162020683289 0.296431303024292 0.3401969373226166 139 79 36
0.16386690735816956 0.13817769289016724 -0.25142887234687805 65 113 148
0.2889125347137451 0.009636093862354755 0.22314170002937317 220 146 51
-0.11208981275558472 -0.11869925260543823 0.37551209330558777 141 82 37
0.11295185983181 0.19772112369537354 -0.23046477138996124 59 107 145
0.05962696671485901 -0.13302837312221527 0.36501964926719666 136 78 36
0.00803806446492672 0.14623171091079712 -0.078031525015831 56 107 143
-0.15441082417964935 -0.18516521155834198 0.2033640444278717 215 150 50
0.2555522322654724 -0.0829881876707077 0.0660979226231575 227 132 54
0.17581944167613983 0.05892002955079079 -0.22958607971668243 54 106 143
-0.16716939210891724 -0.006984095089137554 0.42836856842041016 136 78 36
0.034175168722867966 -0.09516732394695282 -0.2901405394077301 58 109 147
0.17498522996902466 -0.013111264444887638 -0.03930608555674553 217 152 51
-0.18058668076992035 0.08970439434051514 -0.2662219703197479 57 108 145
0.08630023151636124 -0.3594292104244232 0.13910682499408722 234 139 35
0.12332268804311752 0.2264084666967392 -0.02581198886036873 138 79 36
0.02021055296063423 0.06600886583328247 0.4975195527076721 136 78 36
0.06616324931383133 -0.032439224421978 -0.13475990295410156 50 106 145
-0.2532288432121277 -0.11569633334875107 0.12730984389781952 255 64 64
-0.13144074380397797 0.051560498774051666 -0.3454577624797821 136 78 36
-0.13051117956638336 -0.11260221153497696 -0.004715953953564167 221 153 51
-0.26750338077545166 0.09646397083997726 -0.3350091278553009 212 205 202
0.06548649072647095 0.18350471556186676 -0.15686015784740448 55 106 144
-0.1919248253107071 0.06760845333337784 -0.23132236301898956 144 84 36
-0.23477277159690857 0.18515880405902863 0.330299973487854 136 78 36
-0.1547679752111435 -0.022090783342719078 -0.28719380497932434 60 113 153
-0.24915601313114166 0.15648041665554047 -0.31900715827941895 161 134 122
-0.06021348387002945 -0.33457517623901367 0.17225508391857147 232 138 36
0.00029844677192158997 -0.06076500192284584 -0.13808593153953552 55 106 144
-0.08554103225469589 0.13255810737609863 0.48206937313079834 136 78 36
0.2256290465593338 -0.12481897324323654 0.275510311126709 218 152 51
0.253722608089447 0.1849094182252884 -0.3220973014831543 164 139 129
-0.13186146318912506 0.2513262927532196 -0.010020988062024117 136 78 36
-0.2674976885318756 -0.0131852887570858 0.023487592115998268 217 152 51
-0.04802452027797699 -0.20419324934482574 0.16546416282653809 233 138 36
-0.13797537982463837 0.0725257396697998 -0.11605057865381241 64 112 151
0.2232552468776703 0.10921823233366013 -0.28064024448394775 136 78 36
-0.051049526780843735 -0.09058127552270889 -0.2909691333770752 57 108 148
-0.08900418877601624 -0.15233755111694336 0.325553297996521 207 145 49
-0.2913847267627716 0.01770836114883423 0.21683520078659058 220 148 51
0.027260076254606247 -0.13019558787345886 0.37442508339881897 136 78 36
-0.1653127670288086 -0.08949228376150131 -0.007826399058103561 217 152 51
0.2229517549276352 0.27952852845191956 0.21662628650665283 139 79 35
0.23280099034309387 -0.05956170707941055 0.012908722274005413 217 152 51
0.11924301087856293 0.02874046005308628 -0.13130033016204834 56 109 147
0.0952424481511116 -0.18467628955841064 0.23534449934959412 218 152 51
-0.24935778975486755 -0.07652657479047775 0.04763861373066902 217 152 51
-0.24507415294647217 0.21111510694026947 0.28709495067596436 136 78 36
0.03532157838344574 0.2758706212043762 -0.21293355524539948 122 89 87
-0.011352558620274067 0.17549562454223633 -0.11850257962942123 52 102 138
0.23022329807281494 0.07425398379564285 -0.299591064453125 141 94 68
-0.04200274869799614 -0.0019473317079246044 -0.07032784819602966 113 117 133
-0.2523704469203949 0.22085538506507874 0.08114974945783615 136 78 36
-0.15425239503383636 0.1587923765182495 -0.2626049220561981 62 111 150
-0.2872454822063446 0.15839150547981262 0.1977543830871582 221 154 52
-0.07128940522670746 -0.09330539405345917 0.41332289576530457 136 78 36
0.009932409040629864 0.29515641927719116 -0.18490612506866455 136 78 36
0.1735137403011322 0.148622065782547 -0.21288418769836426 137 78 35
0.1483963131904602 0.2868339717388153 0.3467942774295807 136 78 36
0.2399497777223587 0.22946684062480927 -0.3009481430053711 140 87 53
0.3013819456100464 0.1169930025935173 0.1491478681564331 217 152 51
-0.14419366419315338 0.15440209209918976 -0.14411349594593048 136 78 36
-0.2404027283191681 0.14742064476013184 -0.30503299832344055 145 103 82
-0.04777063801884651 -0.10230149328708649 -0.24038377404212952 56 108 147
-0.21548542380332947 -0.04523814842104912 -0.008910960517823696 217 152 51
-0.131018728017807 0.11667066812515259 0.4652768075466156 136 78 36
-0.08820700645446777 -0.07276316732168198 -0.2002829611301422 55 108 145
0.09987955540418625 0.10647960752248764 -0.08556626737117767 61 111 148
0.12680834531784058 0.13090485334396362 -0.05256887152791023 136 78 36
0.22241616249084473 -0.07373278588056564 0.3382314443588257 217 152 51
0.027826912701129913 0.3838678300380707 0.1638711541891098 136 78 36
0.0724387839436531 0.20231518149375916 0.4610576033592224 136 78 36
-0.11200469732284546 0.3408699631690979 0.06663905829191208 136 78 36
0.08082152158021927 0.11414451152086258 -0.3577568531036377 136 78 36
-0.034895159304142 0.3590829074382782 0.2797316014766693 136 78 36
0.17702583968639374 0.1356956511735916 -0.039430826902389526 136 78 36
0.16393674910068512 0.06017518416047096 -0.1511068195104599 136 78 35
0.1754717379808426 0.26191240549087524 0.35011741518974304 136 78 36
-0.04507008567452431 -0.12737959623336792 0.3765462040901184 136 78 36
0.2784307599067688 -0.020407352596521378 0.24657878279685974 218 152 51
-0.16015221178531647 -0.1875404417514801 0.16407185792922974 217 152 51
0.26553893089294434 -0.08431817591190338 0.2274986356496811 243 96 60
-0.0030659593176096678 -0.2731112837791443 0.16899748146533966 232 138 36
-0.13351376354694366 -0.05727741867303848 -0.26875144243240356 60 108 145
-0.03513052314519882 0.23213011026382446 -0.1798272728919983 54 108 147
0.12075408548116684 -0.1167096197605133 0.3754982054233551 221 154 52
0.06992851942777634 -0.2597499489784241 0.04875272884964943 232 138 36
0.0420907624065876 -0.07282812893390656 -0.16559672355651855 59 107 145
-0.19795416295528412 -0.09463087469339371 0.01284838281571865 217 152 51
-0.11205239593982697 0.14079205691814423 -0.16342978179454803 56 107 144
-0.14559532701969147 0.1688099503517151 -0.25032761693000793 56 110 150
-0.001309789135120809 0.12320088595151901 0.49611979722976685 136 78 36
-0.2211839258670807 -0.14798462390899658 0.11655890196561813 217 152 51
-0.0469883568584919 -0.15911470353603363 0.3174123167991638 101 57 24
0.10034412145614624 -0.009699963964521885 -0.3376407325267792 255 255 255
0.03237946704030037 0.2416314035654068 -0.18077336251735687 51 107 146
-0.17638713121414185 0.06252256035804749 -0.2325545698404312 61 112 151
0.10808244347572327 0.028199104592204094 -0.11983438581228256 51 104 143
0.06478763371706009 -0.07235017418861389 -0.1789846569299698 51 103 140
-0.18320131301879883 0.075887031853199 -0.22058004140853882 136 78 35
0.2435292899608612 0.24481815099716187 0.24057313799858093 136 78 36
-0.15829387307167053 -0.05983319878578186 0.40963414311408997 136 78 35
0.24270828068256378 0.14083054661750793 -0.3103800117969513 151 115 98
0.1297069936990738 0.3386346995830536 0.2577495574951172 136 78 36
-0.26467591524124146 0.12378282845020294 0.29387468099594116 217 152 51
-0.17349007725715637 0.1542607992887497 -0.1683363914489746 137 78 36
0.016712429001927376 -0.07165123522281647 0.44082239270210266 136 78 36
-0.2605590522289276 0.10192759335041046 -0.31730079650878906 185 169 164
-0.015691783279180527 -0.2632366418838501 0.047958213835954666 231 138 36
-0.08556421846151352 -0.278656929731369 0.15134675800800323 231 138 36
0.14743442833423615 0.09940915554761887 -0.13185153901576996 136 78 36
0.0974532961845398 0.18575647473335266 -0.1888674646615982 61 113 151
-0.1141999140381813 0.02868012711405754 -0.058943815529346466 217 152 51
-0.16152255237102509 0.044255878776311874 -0.20284083485603333 56 105 144
-0.08578319847583771 0.15956750512123108 -0.1516461819410324 52 104 143
-0.29663240909576416 0.012542471289634705 0.07189334183931351 220 149 51
-0.2189844697713852 -0.12146874517202377 0.2942478656768799 217 151 51
-0.12266574054956436 0.32656899094581604 0.30161717534065247 136 78 35
-0.04781939461827278 -0.08030093461275101 -0.03741121292114258 219 150 52
-0.1374322921037674 0.17352376878261566 -0.0404018834233284 136 78 36
0.28616762161254883 0.17560844123363495 0.11953374743461609 136 78 35
0.1495903730392456 -0.028607044368982315 -0.22893990576267242 61 112 150
-0.19823861122131348 0.1981486976146698 0.37886935472488403 136 78 36
0.26700642704963684 0.06891629844903946 -0.3496263921260834 231 227 226
0.14441412687301636 -0.04072967544198036 -0.2794845402240753 54 107 146
-0.3037837743759155 0.08189664781093597 0.15857498347759247 217 152 51
-0.05222369730472565 -0.058701761066913605 -0.15336446464061737 57 109 146
0.24748723208904266 0.12115330994129181 -0.28229689598083496 143 98 75
-0.14644214510917664 -0.17406992614269257 0.2558494806289673 215 150 50
0.17530490458011627 0.2121870368719101 -0.010540287010371685 136 78 36
-0.10133867710828781 0.18073010444641113 -0.04651045426726341 136 78 36
0.0809151828289032 0.08992508053779602 -0.43853721022605896 233 138 36
-0.03315914422273636 0.14261110126972198 0.4902763366699219 136 78 36
0.1840512454509735 -0.03564184531569481 -0.02852276712656021 217 152 51
0.10218188166618347 0.10010315477848053 -0.48111623525619507 230 138 36
0.0008550673956051469 -0.3262244164943695 0.17808926105499268 231 138 36
-0.07040499895811081 -0.03249731659889221 -0.5003877282142639 231 138 35
0.02483980543911457 0.17405596375465393 -0.12108002603054047 55 108 145
-0.17646662890911102 0.018717262893915176 -0.24967333674430847 58 109 147
-0.23892167210578918 0.18554900586605072 -0.299333393573761 139 88 58
-0.09475148469209671 -0.0434664748609066 -0.16966718435287476 55 109 148
-0.21839500963687897 0.11129428446292877 -0.027772754430770874 146 88 38
-0.04077950492501259 0.3194647431373596 0.360095351934433 136 78 36
0.16162165999412537 0.1215968057513237 -0.22277504205703735 57 109 147
0.3031650185585022 0.017817247658967972 0.10738852620124817 255 66 64
0.22860224545001984 0.18591347336769104 0.01073346845805645 136 78 35
-0.029164450243115425 -0.02285306714475155 -0.34796375036239624 255 255 255
0.1490306705236435 -0.0609193816781044 -0.028675206005573273 217 152 51
-0.07839809358119965 -0.06387557089328766 -0.04065147414803505 218 152 51
-0.1916995346546173 0.2692902684211731 0.31976401805877686 136 78 36
0.05873466283082962 0.18440312147140503 -0.15296252071857452 60 110 147
0.1359570175409317 0.1953568458557129 -0.033744510263204575 136 78 36
0.004898273851722479 0.24701501429080963 -0.039811886847019196 136 78 36
-0.07287193089723587 -0.1841500997543335 0.2400616854429245 82 45 17
0.008611883968114853 -0.17802435159683228 0.03731974586844444 218 152 51
0.21584101021289825 0.1695602983236313 -0.26624128222465515 136 78 36
-0.0227089561522007 -0.06348004937171936 0.4457894563674927 136 78 36
-0.1773274540901184 -0.1316543072462082 0.326820433139801 215 151 50
0.1607816070318222 -0.00344070210121572 -0.22374184429645538 59 112 151
-0.09626489132642746 0.2178143709897995 -0.25586578249931335 59 107 144
-0.042638253420591354 0.23485097289085388 0.4473755657672882 136 78 36
-0.26645904779434204 0.10549870133399963 -0.33117178082466125 209 201 198
-0.10541258007287979 0.07002249360084534 -0.08707816898822784 59 109 147
0.05220412462949753 0.13866792619228363 -0.4967063069343567 232 138 36
-0.10940569639205933 -0.06614246964454651 -0.21837671101093292 53 104 143
0.2502979040145874 0.04722564294934273 -0.309524804353714 164 139 129
-0.02968313731253147 0.1740553081035614 -0.33852314949035645 136 78 36
0.29114222526550293 0.1566750556230545 0.10370659828186035 220 151 50
0.2897651493549347 0.15780799090862274 0.18007034063339233 217 152 51
-0.14463047683238983 -0.0606897696852684 -0.029955584555864334 217 152 51
0.013061580248177052 0.1654524803161621 -0.3453214466571808 136 78 36
-0.03230529651045799 -0.16570352017879486 0.30344146490097046 115 66 29
-0.17560036480426788 0.30240559577941895 0.2842903435230255 136 78 36
0.012077192775905132 0.23511545360088348 -0.29742908477783203 136 78 36
0.15136019885540009 0.0745808407664299 -0.05462966114282608 217 148 51
-0.06010955199599266 0.12332523614168167 -0.09164629876613617 56 108 146
0.2656296491622925 0.11222044378519058 0.010642441920936108 217 152 51
-0.24311567842960358 0.18190881609916687 -0.26977306604385376 136 79 40
0.02583429031074047 0.20040729641914368 -0.15034322440624237 53 107 145
0.22702981531620026 0.25976306200027466 0.0929904505610466 136 78 36
-0.12387976050376892 0.1002979427576065 -0.10563560575246811 63 112 149
0.010621017776429653 -0.21492208540439606 0.17083556950092316 231 138 36
-0.2266678661108017 0.17324839532375336 0.0015160506591200829 136 78 36
0.015601874329149723 0.3271610736846924 0.00611905800178647 136 78 36
0.25845006108283997 0.2323317527770996 0.20097841322422028 136 77 35
-0.04717724025249481 0.25584396719932556 0.43061062693595886 136 78 36
0.008892426267266273 0.27052026987075806 -0.16382621228694916 58 108 145
0.1741539090871811 0.00874045304954052 -0.26260605454444885 65 113 149
-0.04468126595020294 -0.33507221937179565 0.1226910799741745 231 138 36
0.26919710636138916 -0.055045198649168015 0.05938342586159706 238 108 58
-0.2026083916425705 -0.013225186616182327 0.394189715385437 217 152 51
-0.0852324590086937 0.01923842914402485 -0.46562516689300537 231 138 36
0.2181251496076584 -0.15818139910697937 0.16112877428531647 217 152 51
-0.17503732442855835 0.12276985496282578 -0.04293164983391762 136 78 36
-0.2257440686225891 0.2787669897079468 0.16363133490085602 136 78 36
-0.017878862097859383 0.3493736684322357 0.3084251880645752 136 78 36
-0.016353076323866844 0.24583536386489868 -0.1697140336036682 52 104 143
0.062034185975790024 -0.03727908432483673 -0.33226215839385986 255 255 255
0.1482762098312378 0.11763282865285873 -0.19668014347553253 57 109 147
0.09189564734697342 0.00608874810859561 -0.12800021469593048 57 111 149
-0.2507086396217346 0.0635557770729065 -0.3057611584663391 162 136 125
0.090450718998909 -0.0789501890540123 -0.28548863530158997 62 113 150
0.02184523269534111 -0.15394294261932373 0.3321954011917114 117 66 29
-0.030459266155958176 0.1720910370349884 -0.12180031090974808 55 107 145
-0.17272208631038666 0.11851246654987335 -0.26407894492149353 50 104 144
0.06558536738157272 -0.04582078009843826 -0.14761988818645477 61 111 147
-0.2138894498348236 -0.13721036911010742 0.2762100100517273 1 1 0
0.1006811335682869 0.149663046002388 -0.33155110478401184 136 78 35
0.01769598200917244 -0.1874207705259323 0.23031733930110931 79 43 17
-0.07653863728046417 -0.3245030343532562 0.11460772901773453 232 138 36
-0.05508521571755409 0.33602434396743774 0.327056884765625 136 78 36
-0.1574343740940094 0.032306257635354996 -0.3167418837547302 136 78 36
0.2017858326435089 -0.003801038023084402 0.39863914251327515 214 147 50
0.10777036845684052 -0.13803590834140778 0.008098729886114597 217 152 51
0.033818796277046204 0.1016603410243988 -0.4756109416484833 232 138 36
-0.09658578783273697 0.2675171494483948 0.40430787205696106 136 78 36
-0.15918590128421783 0.11234185844659805 -0.1442456692457199 136 78 36
-0.3063115179538727 0.06994897872209549 0.13186229765415192 217 152 51
0.0703442320227623 -0.009632124565541744 -0.11612588912248611 53 105 143
0.11600116640329361 -0.1660013049840927 0.2887327969074249 217 152 51
-0.24166439473628998 0.07602646201848984 -0.27594897150993347 137 79 38
-0.2679361402988434 0.07935730367898941 -0.34687158465385437 230 226 224
-0.04958651587367058 -0.37660038471221924 0.1514780968427658 231 138 36
-0.28731340169906616 0.13547779619693756 0.2183072566986084 217 152 50
0.01771935075521469 0.3559653162956238 0.2938570976257324 135 77 35
0.0026318500749766827 -0.1738387942314148 0.28204914927482605 92 51 21
0.040756192058324814 -0.1630530059337616 0.01897619105875492 217 152 51
-0.09191585332155228 0.11729658395051956 -0.3527217507362366 136 78 35
-0.11761932820081711 0.00398666225373745 -0.4993442893028259 231 138 36
0.22845777869224548 0.1523280143737793 -0.285211443901062 136 78 35
0.20142342150211334 -0.01656556874513626 0.39457282423973083 216 152 51
-0.1807006597518921 0.30671191215515137 0.09669921547174454 136 78 36
0.19546104967594147 0.18076853454113007 -0.24218899011611938 136 78 36
0.03139716759324074 0.3198319375514984 0.36161378026008606 136 78 36
-0.1481560915708542 -0.03353223204612732 -0.2330685555934906 55 108 147
0.12611491978168488 -0.05149465799331665 -0.21714039146900177 60 112 149
0.09331510961055756 -0.05325204133987427 -0.17837554216384888 59 110 147
-0.09780371934175491 0.14195628464221954 -0.1085355132818222 58 111 150
-0.1889774352312088 0.2509838044643402 0.027112895622849464 136 78 36
0.2867845892906189 0.04211119934916496 0.23853588104248047 217 152 51
0.07591216266155243 0.11915786564350128 -0.07326562702655792 52 104 143
-0.08620736002922058 0.026365632191300392 -0.10763568431138992 53 106 144
0.20151260495185852 -0.1503317654132843 0.26816803216934204 230 231 231
0.19009187817573547 -0.05470907315611839 0.38723912835121155 217 152 51
0.18104654550552368 -0.09169628471136093 0.36956140398979187 217 152 51
0.16385500133037567 0.15765094757080078 -0.03763570636510849 136 78 36
0.27858248353004456 0.137533038854599 0.25014352798461914 217 152 51
-0.07424482703208923 0.06095793470740318 -0.3682818114757538 136 78 36
0.06310894340276718 -0.1459909975528717 0.3421016037464142 109 61 26
-0.2221706658601761 0.23810280859470367 0.05010628700256348 136 78 36
0.05191805213689804 -0.052093539386987686 -0.14538303017616272 56 108 145
-0.15583623945713043 0.04860905930399895 -0.14555886387825012 136 78 35
0.08550520986318588 -0.25289735198020935 0.14925625920295715 232 138 36
-0.06142613664269447 0.15147194266319275 -0.12346506863832474 54 106 144
-0.21359629929065704 0.29208287596702576 0.18237707018852234 136 78 36
0.10292059928178787 -0.21140773594379425 0.044913943856954575 231 138 36
0.2584283649921417 0.21453361213207245 0.24416407942771912 136 78 35
-0.18383018672466278 -0.17883388698101044 0.16993451118469238 214 150 50
-0.12413661181926727 0.18758773803710938 -0.2291703224182129 53 106 143
0.259160578250885 0.04163256660103798 -0.3320697546005249 193 181 176
0.009879326447844505 0.38266950845718384 0.10638219118118286 136 78 36
0.12034521251916885 0.2197861522436142 0.43121537566185 136 78 36
0.3019407391548157 0.01869535818696022 0.161525160074234 252 65 63
0.12075750529766083 -0.19308851659297943 0.1833336502313614 217 152 51
0.27458077669143677 -0.052108392119407654 0.23361913859844208 247 85 61
-0.023201433941721916 -0.22107592225074768 0.16752655804157257 232 138 36
0.18407459557056427 0.02543848194181919 -0.044608473777770996 217 152 51
0.20266784727573395 -0.14280462265014648 0.07137778401374817 217 152 51
-0.02234489843249321 -0.23095880448818207 0.08164559304714203 232 138 36
0.1283152997493744 -0.008392768912017345 -0.3227066397666931 244 240 239
-0.0664849579334259 -0.02489854209125042 -0.1281275451183319 55 106 143
-0.07192318141460419 0.19096443057060242 -0.3151209354400635 136 78 36
-0.02904253825545311 -0.26700860261917114 0.16341502964496613 232 139 36
-0.06308633834123611 -0.010348181240260601 -0.10990740358829498 63 113 149
0.12473221868276596 0.010872941464185715 -0.4753628075122833 234 140 36
0.10272645205259323 -0.059183213859796524 -0.4787076413631439 235 139 36
-0.2513982951641083 0.15881314873695374 -0.28646013140678406 149 113 96
-0.24489115178585052 0.19066207110881805 -0.30815020203590393 147 107 88
-0.2623447775840759 0.03748927265405655 -0.3469201922416687 212 205 202
-0.3055914640426636 0.038040176033973694 0.11169476807117462 222 145 52
0.05708223953843117 0.37919434905052185 0.16159527003765106 136 78 36
-0.24745765328407288 0.18236923217773438 -0.31289541721343994 152 119 103
-0.16644033789634705 0.07136615365743637 -0.21137486398220062 53 108 148
-0.14686448872089386 -0.20714712142944336 0.13317163288593292 232 138 36
0.1732122004032135 0.11525803804397583 -0.25910723209381104 53 104 142
-0.23146292567253113 -0.1349336951971054 0.24076999723911285 219 152 50
0.15478947758674622 0.07542131841182709 -0.3238355219364166 136 78 36
-0.3052569031715393 0.04083459824323654 0.14625884592533112 230 129 55
0.12925322353839874 -0.3062151074409485 0.14818979799747467 233 139 36
-0.17977997660636902 -0.20605804026126862 0.11303678900003433 231 138 36
0.09258918464183807 0.32077333331108093 0.33701202273368835 136 78 36
0.14299912750720978 0.050875358283519745 -0.17483428120613098 85 107 136
-0.2846493422985077 -0.021510427817702293 0.223077654838562 254 66 64
0.19137857854366302 0.21861973404884338 0.37366601824760437 137 78 36
-0.007622293662279844 -0.023170003667473793 -0.0874396339058876 58 109 146
-0.28721579909324646 -0.0456634946167469 0.10547752678394318 255 64 64
0.04625975713133812 -0.32870882749557495 0.08160345256328583 232 138 36
-0.07284830510616302 0.3759126663208008 0.15684297680854797 136 78 36
0.016171222552657127 0.15244929492473602 -0.09031019359827042 60 109 145
-0.19854338467121124 0.2322746217250824 0.35268154740333557 136 78 36
0.17227478325366974 0.061563458293676376 -0.22142982482910156 58 110 148
0.2404763549566269 0.12750624120235443 -0.3086133301258087 150 111 93
0.015461063012480736 -0.08177221566438675 -0.17015594244003296 59 109 146
-0.08616355061531067 0.19597472250461578 -0.18744759261608124 49 106 146
0.21244807541370392 0.2640117406845093 0.07132324576377869 136 78 36
0.058510538190603256 0.1259831041097641 -0.47345447540283203 231 137 35
-0.11947699636220932 -0.06845297664403915 -0.2708173990249634 64 113 150
-0.04405730217695236 0.2241791933774948 -0.2980406880378723 136 78 35
0.09397648274898529 0.09098301827907562 -0.06149090826511383 136 78 36
0.06029314547777176 0.034309182316064835 -0.5000911951065063 231 138 36
-0.04215984046459198 0.1392257809638977 -0.3559938669204712 136 78 36
-0.23712918162345886 0.25454196333885193 0.10883157700300217 136 78 36
0.2742851674556732 0.1900053769350052 0.08969353884458542 136 78 36
-0.2638840675354004 0.17960861325263977 0.2665453255176544 136 78 36
0.1660328507423401 0.31067824363708496 0.27955612540245056 136 78 36
0.02254164032638073 -0.0700518786907196 -0.15387706458568573 58 111 149
-0.06367452442646027 -0.19680313766002655 0.1768195927143097 69 37 13
-0.10919634997844696 0.18585672974586487 -0.2943439185619354 136 78 36
0.29968154430389404 0.03685756027698517 0.1847716122865677 223 144 52
0.030801422894001007 0.10532978177070618 -0.3695911467075348 136 78 36
-0.060011956840753555 -0.001291777240112424 -0.06018979847431183 218 152 51
0.053520526736974716 0.0811326876282692 -0.4999554753303528 232 138 36
-0.16657698154449463 -0.2785167694091797 0.09697429835796356 231 138 36
-0.14198853075504303 -0.0025767891202121973 -0.3155980408191681 137 78 36
-0.10488707572221756 0.02091819979250431 -0.13530436158180237 61 111 149
0.11384670436382294 -0.03755292668938637 -0.3107386827468872 255 255 255
-0.14790546894073486 -0.1608770340681076 0.050694823265075684 217 152 51
-0.2698383629322052 0.026923224329948425 0.2878699004650116 214 151 50
0.24811232089996338 0.20489978790283203 -0.311746209859848 150 114 98
0.09100852906703949 -0.13274027407169342 0.3596232235431671 133 76 35
0.0034381418954581022 -0.168189138174057 0.2981133460998535 100 55 24
-0.17804738879203796 0.09905139356851578 -0.2592175006866455 65 114 152
-0.12317414581775665 0.30014023184776306 0.3503934144973755 136 78 36
-0.04355183243751526 0.12368685007095337 -0.4994363486766815 230 136 36
0.2855997383594513 0.17387714982032776 0.18025065958499908 136 78 36
-0.07070419937372208 0.3042261600494385 0.3740078806877136 136 78 36
0.2860040068626404 -0.022536803036928177 0.06692227721214294 251 78 62
-0.26286473870277405 0.11111466586589813 -0.320331335067749 191 178 174
0.05909927934408188 0.14416936039924622 -0.3493216633796692 136 78 36
-0.23833602666854858 0.04180196672677994 -0.021091215312480927 214 149 50
-0.22876159846782684 0.2172754555940628 0.03630552068352699 136 78 36
-0.277755469083786 0.19956696033477783 0.1493372768163681 137 78 36
0.2419297993183136 0.06569024175405502 -0.019124938175082207 217 152 51
0.15879471600055695 -0.011129594407975674 -0.22721576690673828 67 115 152
0.04469780996441841 -0.2520151734352112 0.16029943525791168 232 138 36
0.2848019003868103 0.07712680101394653 0.24661263823509216 217 152 51
0.17816871404647827 -0.1804339438676834 0.18441222608089447 11 7 2
0.09794078022241592 -0.08430885523557663 -0.2679844796657562 55 109 148
-0.0035723289474844933 0.22442865371704102 -0.1641220599412918 52 104 141
-0.030262760818004608 0.0402865968644619 -0.49936068058013916 232 138 36
0.2238321453332901 -0.14788885414600372 0.22290445864200592 0 0 0
-0.06254219263792038 0.21675799787044525 -0.19184523820877075 60 110 146
0.019362760707736015 -0.04512961208820343 -0.12162921577692032 53 105 144
-0.2969686686992645 -0.00010546403791522607 0.08418585360050201 255 67 63
0.24258391559123993 0.21937468647956848 0.28400281071662903 136 78 36
0.0879579558968544 -0.18993304669857025 0.21270473301410675 217 152 51
0.07754767686128616 0.36074674129486084 0.07671143859624863 136 78 36
-0.1658964604139328 0.08968127518892288 0.4443468749523163 136 78 36
-0.11569199711084366 -0.34157562255859375 0.16118107736110687 231 138 36
0.11046356707811356 -0.3431652784347534 0.16378402709960938 231 138 36
-0.09208821505308151 0.07573018223047256 -0.07588689029216766 61 113 150
-0.16732129454612732 0.04828953742980957 -0.21308112144470215 59 108 148
0.29806336760520935 0.13817137479782104 0.1284908950328827 217 152 51
-0.11297541111707687 -0.016297180205583572 0.4543965756893158 136 78 36
-0.24632908403873444 -0.10117597877979279 0.07390932738780975 219 150 51
0.26822319626808167 -0.08211877942085266 0.21934187412261963 255 65 64
-0.0011166920885443687 -0.18436594307422638 0.24413883686065674 81 44 18
-0.22698061168193817 0.07727767527103424 -0.29213428497314453 137 79 41
-0.2681310772895813 -0.0909053236246109 0.19767670333385468 255 64 64
0.2264338731765747 0.12031611800193787 -0.020877862349152565 136 78 36
-0.08129926770925522 0.1392115205526352 -0.05773362144827843 136 78 36
0.2305385023355484 0.1123419925570488 -0.24153684079647064 136 78 35
0.030411748215556145 -0.06248742714524269 -0.045788004994392395 217 152 50
-0.034780845046043396 0.2125067263841629 -0.17182312905788422 57 107 145
-0.11933240294456482 0.12411556392908096 -0.15449924767017365 56 110 149
-0.13328517973423004 -0.018984727561473846 -0.4800969362258911 231 138 35
-0.0397166945040226 0.00813750084489584 -0.3634450435638428 255 255 255
-0.027114147320389748 -0.0916358157992363 0.4221467673778534 136 78 36
-0.2151818871498108 0.19820812344551086 0.007691741455346346 136 78 36
0.26410219073295593 0.04613475129008293 -0.35209205746650696 224 219 217
-0.12291841953992844 0.10285583883523941 -0.05711284279823303 136 78 36
0.07387556880712509 0.19464433193206787 -0.3114093840122223 136 79 38
-0.09783055633306503 0.12005791068077087 -0.0875488743185997 58 109 147
0.3047054409980774 0.04166286438703537 0.15230384469032288 226 135 53
0.22244559228420258 -0.1103677973151207 0.3039189577102661 217 152 51
-0.05608303099870682 -0.018365459516644478 -0.1119467243552208 57 110 149
0.15662962198257446 -0.10047852247953415 -0.003862010082229972 217 152 51
0.10667256265878677 0.35446470975875854 0.2343309074640274 136 78 36
0.11576486378908157 0.3552592396736145 0.21142545342445374 136 78 36
0.06908129900693893 -0.3156132698059082 0.07455434650182724 232 138 35
0.20164631307125092 -0.16960856318473816 0.1786348968744278 9 5 1
0.2627936601638794 0.06654930859804153 -0.3582818806171417 214 214 216
-0.26524561643600464 -0.0604422390460968 0.05760575830936432 227 130 54
0.09415962547063828 0.14228633046150208 -0.11127043515443802 54 107 146
0.24342148005962372 0.10746442526578903 0.34442633390426636 136 78 36
0.25488218665122986 0.08321366459131241 -0.3094196021556854 169 147 139
0.23112846910953522 0.11071398109197617 0.36549660563468933 136 78 36
0.17657612264156342 0.13700084388256073 0.4275669455528259 136 78 36
0.07623405009508133 -0.0006986941443756223 -0.5004420280456543 232 138 36
-0.004244670271873474 -0.09619659930467606 -0.19569538533687592 50 102 141
-0.1647844761610031 0.23605769872665405 0.3871327042579651 136 78 36
0.16549387574195862 -0.18550336360931396 0.12705017626285553 230 140 38
-0.23325814306735992 0.04577188566327095 -0.31173011660575867 155 122 108
-0.3027791380882263 0.05592602491378784 0.07839980721473694 216 152 50
-0.2531416714191437 0.14187094569206238 -0.3288784623146057 174 155 148
0.06644117087125778 0.014715449884533882 -0.062229808419942856 217 153 51
-0.08040520548820496 0.3608670234680176 0.24539008736610413 136 78 36
0.2102726399898529 0.030498960986733437 0.397024005651474 137 78 35
0.2696090340614319 -0.017857208847999573 0.27490442991256714 217 152 51
-0.17976677417755127 0.18599718809127808 -0.21242424845695496 138 79 36
0.05927441269159317 -0.10279065370559692 0.40531519055366516 136 78 36
-0.2151399701833725 -0.06636112183332443 0.35260847210884094 217 152 51
0.21006353199481964 0.2780778706073761 0.2659687101840973 136 78 36
-0.21203626692295074 0.20127449929714203 -0.23158198595046997 136 78 36
-0.1589759886264801 -0.02514784410595894 -0.2660750448703766 60 112 150
-0.12149480730295181 -0.04650470241904259 -0.20351643860340118 58 108 145
-0.04052770137786865 -0.01960720308125019 -0.4729931652545929 232 138 36
-0.0990028977394104 -0.035692840814590454 -0.1663714349269867 60 113 152
-0.24667450785636902 0.07959885150194168 -0.014879558235406876 218 152 51
-0.2362956404685974 0.22661800682544708 -0.2751108705997467 138 83 47
0.0027941749431192875 0.20036908984184265 0.4714318811893463 136 78 36
0.1816013902425766 0.06495578587055206 -0.2511726915836334 56 108 143
-0.09015464037656784 0.21021267771720886 -0.2774559557437897 136 78 36
-0.014699469320476055 0.2903202474117279 -0.20347227156162262 136 78 36
-0.0002458960807416588 -0.10527971386909485 -0.22071655094623566 56 107 145
-0.007648375350981951 0.0981273278594017 -0.370893269777298 136 78 36
0.15380814671516418 0.1039569079875946 0.4524061977863312 136 78 36
0.2441260665655136 0.2227395474910736 0.06512479484081268 135 77 35
-0.2557540833950043 0.13313128054141998 -0.33515480160713196 185 170 165
-0.2604682147502899 -0.10940738022327423 0.16617009043693542 255 64 64
0.26856106519699097 -0.0944335088133812 0.13974249362945557 255 64 64
0.3049122393131256 0.0416819266974926 0.09770938009023666 216 150 50
0.0839017853140831 0.008691719733178616 -0.1163502186536789 55 106 145
-0.010679579339921474 0.18761798739433289 -0.13213856518268585 51 107 145
-0.09851984679698944 -0.12428813427686691 0.37087282538414 136 78 36
-0.12747304141521454 0.030469931662082672 -0.1262812614440918 61 111 150
0.2736765146255493 0.1107579693198204 0.2743208110332489 217 152 51
-0.2249215692281723 0.034863367676734924 -0.28439944982528687 137 80 39
0.04607461392879486 0.1990923136472702 0.46830636262893677 136 78 36
-0.03453315049409866 0.05313003435730934 -0.3704166114330292 136 78 36
0.06799495965242386 0.27246952056884766 0.4107033908367157 136 78 36
0.27745354175567627 -0.04507440701127052 0.22992323338985443 253 70 63
