0.3247968256473541 -0.0832090973854065 -0.18456409871578217 252 255 0
0.4502025842666626 -0.2976561188697815 -0.0412951223552227 252 255 0
0.21390514075756073 0.029310882091522217 0.03279650956392288 252 255 0
0.0011593321105465293 0.1905481070280075 -0.00161353952717036 240 240 240
-0.06586240231990814 0.3683171570301056 0.11713971942663193 236 234 240
-0.04526563361287117 -0.36168596148490906 -0.10926689952611923 251 254 0
0.007762723136693239 -0.04710330441594124 -0.19713273644447327 252 255 0
-0.2151014655828476 0.3790968060493469 0.21157921850681305 251 255 0
0.047208186239004135 -0.40748167037963867 0.1050417572259903 252 255 0
-0.09879975765943527 -0.29025575518608093 -0.025854572653770447 252 255 0
0.13531552255153656 -0.1224282756447792 0.20532360672950745 252 255 0
-0.21397916972637177 0.31141650676727295 0.18050353229045868 251 255 0
0.2084764838218689 -0.017288852483034134 -0.1939571052789688 252 255 0
-0.23744167387485504 0.4532594680786133 -0.016708362847566605 252 255 0
-0.2666742503643036 0.326185941696167 0.21831229329109192 243 252 0
-0.4294145405292511 0.27671191096305847 0.020769471302628517 252 255 0
-0.10984140634536743 0.4648095667362213 0.18599489331245422 239 234 236
-0.41345831751823425 0.3825519382953644 0.10215312242507935 252 255 0
-0.13074134290218353 0.4866487383842468 0.19928982853889465 254 255 0
-0.1627086102962494 0.28237462043762207 0.13727621734142303 249 253 112
-0.05153647065162659 -0.37215256690979004 -0.032288793474435806 252 255 0
-0.07019241899251938 -0.27515894174575806 -0.16030649840831757 252 255 0
0.4387388229370117 -0.2202599197626114 -0.09198902547359467 252 255 0
0.18182197213172913 -0.3119518756866455 0.2093496322631836 252 255 0
0.17458684742450714 0.03828853368759155 -0.1071745902299881 252 255 0
-0.1705918163061142 0.2870294153690338 0.1435641348361969 252 255 63
0.0010634231148287654 0.02056349813938141 0.02525392360985279 252 255 0
-0.09334762394428253 -0.061615679413080215 -0.10329088568687439 252 255 0
-0.30923351645469666 0.41696709394454956 -0.04781792685389519 252 255 0
-0.10229840129613876 0.39932981133461 0.1526966542005539 252 255 0
0.3177560567855835 -0.031944338232278824 -0.1193680465221405 252 255 0
-0.3907974660396576 0.230328768491745 0.25022637844085693 248 255 0
-0.4237651228904724 0.315400630235672 0.23418232798576355 252 255 0
-0.18105928599834442 0.46247294545173645 0.22727008163928986 246 242 158
0.07362782210111618 -0.08233415335416794 0.17793665826320648 252 255 0
0.008896646089851856 0.20028822124004364 -0.007401145063340664 245 244 51
-0.3674796521663666 0.09324102103710175 0.1755731999874115 243 249 0
0.2600560486316681 -0.39218729734420776 0.15755541622638702 252 255 0
0.3677080571651459 -0.37510064244270325 -0.17502327263355255 252 255 0
-0.40627962350845337 0.10068286955356598 0.15609383583068848 252 255 0
0.0864073783159256 -0.32800889015197754 -0.25860536098480225 252 255 0
0.18826989829540253 -0.3761119544506073 0.17998147010803223 252 255 0
0.09456085413694382 -0.2175786793231964 -0.28722307085990906 252 255 0
-0.3857497274875641 0.41696250438690186 0.15583346784114838 250 255 0
-0.030215997248888016 0.1592639982700348 0.003286752849817276 247 251 58
-0.3056747615337372 0.23590286076068878 -0.10592447221279144 252 255 0
-0.07122360169887543 -0.10003756731748581 0.08607025444507599 251 255 0
0.3111875653266907 -0.10643181949853897 -0.21661756932735443 253 255 0
0.2736593186855316 -0.26267191767692566 -0.27323344349861145 252 255 0
0.3784801959991455 -0.12349709123373032 -0.15300564467906952 252 255 0
-0.01751244068145752 0.3831261992454529 0.09533698111772537 249 255 4
0.40737295150756836 -0.4392142593860626 -0.083236925303936 252 255 0
-0.1651480495929718 0.35957539081573486 -0.09287455677986145 252 255 0
-0.19240112602710724 0.03435564786195755 0.04496077820658684 252 255 64
0.0314260758459568 -0.44395074248313904 -0.06832443177700043 251 255 0
-0.1252666711807251 0.45761218667030334 0.19207258522510529 246 254 0
-0.1037822961807251 -0.07146736979484558 0.015584422275424004 252 255 0
0.09809999167919159 -0.44051510095596313 -0.16769574582576752 252 255 0
-0.42943260073661804 0.17673766613006592 0.22192499041557312 252 255 0
0.07451923191547394 -0.08624543994665146 -0.25172868371009827 252 255 0
0.40905413031578064 -0.234236940741539 -0.16453544795513153 252 255 0
0.11396376043558121 -0.44442108273506165 0.10116706043481827 250 254 0
-0.28479161858558655 0.4193175435066223 0.2706548571586609 251 252 87
-0.3719152808189392 0.32551300525665283 0.28136125206947327 237 237 228
-0.23240798711776733 0.04178929701447487 0.0722401887178421 236 235 242
0.3366035521030426 -0.24433712661266327 -0.24173179268836975 252 255 0
-0.1279996931552887 0.3293110728263855 0.1368156373500824 252 255 0
0.1552438586950302 -0.4948181211948395 -0.019628949463367462 252 255 0
-0.2051306664943695 0.39733314514160156 -0.07705555856227875 252 255 0
-0.3668777644634247 0.05296466872096062 0.14815425872802734 252 255 0
0.016732309013605118 0.0064191375859081745 -0.13867482542991638 252 255 0
0.10117501765489578 -0.27084916830062866 -0.2815840542316437 252 255 0
0.16051751375198364 -0.2211352288722992 -0.2950221002101898 252 255 0
-0.2801124155521393 0.0075675505213439465 0.08554589748382568 243 241 218
0.07580029219388962 0.03722350671887398 0.039087679237127304 252 255 0
-0.3064876198768616 0.334513396024704 -0.13509340584278107 252 255 0
-0.09093911945819855 0.24200129508972168 0.0760258138179779 252 254 59
0.04097810015082359 -0.263636976480484 -0.26255372166633606 252 255 0
0.41226059198379517 -0.18718524277210236 -0.1437027007341385 252 255 0
-0.08385773748159409 0.08381933718919754 0.0017918619560077786 237 236 239
0.08596190065145493 -0.16407939791679382 -0.2812124192714691 252 255 0
0.31399181485176086 -0.427012175321579 -0.17169427871704102 252 255 0
-0.18954044580459595 0.08238726854324341 -0.05367361009120941 252 255 0
-0.3521168828010559 0.3778601586818695 0.2923804521560669 236 235 236
-0.0168482456356287 0.2453974336385727 0.0337623693048954 250 252 126
-0.3304588496685028 0.40405791997909546 -0.10758097469806671 252 255 0
-0.03931533545255661 0.4065595865249634 0.11778950691223145 251 254 0
-0.11833193898200989 -0.10880645364522934 -0.04010666161775589 252 255 0
-0.4389507472515106 0.2174813449382782 0.2159113585948944 252 255 0
-0.02770049497485161 -0.39478105306625366 -0.07100055366754532 252 255 0
-0.3676377236843109 0.30508825182914734 0.2694093883037567 252 255 0
-0.1264633685350418 0.0628732219338417 -0.024431951344013214 252 255 0
0.34238511323928833 -0.26467442512512207 0.16691972315311432 252 255 0
0.3171449899673462 -0.42515766620635986 0.10133661329746246 252 255 0
-0.1856003850698471 0.21488384902477264 0.12096786499023438 236 237 236
-0.365248441696167 0.34120434522628784 -0.12458167970180511 252 255 0
-0.18306457996368408 0.49884459376335144 0.14565125107765198 252 255 0
-0.34920385479927063 0.047699376940727234 0.14459851384162903 237 237 237
0.33318522572517395 -0.29521840810775757 -0.23896989226341248 252 255 0
-0.3646073043346405 0.3918773829936981 -0.030650688335299492 252 255 0
-0.033795468509197235 0.42783692479133606 0.06880179792642593 252 255 0
-0.1189330592751503 0.44492509961128235 0.0010982645908370614 252 255 0
-0.07663816213607788 -0.32531386613845825 0.01603515073657036 252 255 0
-0.15481752157211304 0.3961569666862488 0.18244723975658417 251 255 0
-0.43291541934013367 0.15750537812709808 0.1042904481291771 252 255 0
0.16849997639656067 -0.43654653429985046 -0.19882500171661377 252 255 0
-0.2961941957473755 0.4493907392024994 0.003588274819776416 252 255 0
-0.16170810163021088 0.3017561435699463 -0.11173297464847565 252 255 0
0.163751021027565 -0.4882953464984894 -0.09815961122512817 252 255 0
0.10929331183433533 -0.4179057776927948 -0.20154784619808197 252 255 0
-0.16054636240005493 0.4575178623199463 0.2140376716852188 236 239 231
0.4377661347389221 -0.1883489191532135 -0.03788749501109123 252 255 0
-0.36896073818206787 0.41074517369270325 0.22636845707893372 252 255 0
0.13204222917556763 -0.349628210067749 0.1893891990184784 252 255 0
-0.3145044147968292 0.02297842875123024 0.11291193217039108 235 236 234
0.2717524468898773 -0.4650062322616577 0.0707162395119667 252 255 0
-0.10624963045120239 -0.25493350625038147 0.010554051026701927 252 255 0
-0.018126536160707474 -0.3448079228401184 -0.17887119948863983 252 255 0
-0.2456655502319336 0.20008739829063416 0.1500297635793686 234 235 236
0.21047179400920868 -0.4345337748527527 -0.20194996893405914 252 255 0
-0.05911833420395851 0.1621423363685608 0.021967560052871704 251 255 0
-0.09236471354961395 0.43720340728759766 0.16332411766052246 252 255 0
0.15428562462329865 0.03435109555721283 0.054208144545555115 252 255 0
-0.3261878788471222 0.4641198515892029 0.10361289978027344 252 255 0
-0.4135199189186096 0.23571327328681946 0.26654884219169617 236 236 236
-0.3837631940841675 0.3568418025970459 0.2758183181285858 251 255 0
0.08250279724597931 0.04996752738952637 -0.04334611818194389 252 255 0
-0.4296863079071045 0.23961085081100464 0.021350229158997536 252 255 0
0.0838472917675972 -0.02312173694372177 0.13651499152183533 251 255 0
-0.18577249348163605 0.4428390562534332 0.22155852615833282 252 255 0
0.2705117166042328 -0.47020983695983887 -0.13214434683322906 252 255 0
-0.24897252023220062 0.122953400015831 -0.07711483538150787 252 255 0
0.36047956347465515 -0.10887382924556732 0.09583180397748947 252 255 0
-0.21903479099273682 0.45804134011268616 0.2484387755393982 236 235 240
-0.42216992378234863 0.36345648765563965 0.1671503633260727 252 255 0
-0.015207869000732899 0.1762896031141281 0.0019853885751217604 238 234 236
0.2498508095741272 -0.3221094012260437 0.19584721326828003 252 255 0
0.27525651454925537 -0.07244939357042313 0.14375409483909607 252 255 0
-0.32617539167404175 0.4617708623409271 0.1708131581544876 252 255 0
-0.2192874401807785 0.16636021435260773 0.11934379488229752 251 255 0
0.1351872980594635 -0.47730517387390137 0.044911403208971024 252 255 0
-0.06404348462820053 -0.0898171067237854 -0.16042833030223846 252 255 0
0.027109282091259956 -0.3537519574165344 -0.21260710060596466 252 255 0
-0.03310512378811836 0.39798635244369507 0.02076924405992031 252 255 0
-0.2510521113872528 0.31729546189308167 0.20511360466480255 236 236 237
-0.3337981402873993 0.03322404995560646 0.09408994764089584 252 255 0
0.1498231738805771 -0.16470056772232056 -0.28833577036857605 252 255 0
-0.003013000823557377 0.17381876707077026 -0.012095924466848373 254 255 0
-0.0025221132673323154 -0.22981250286102295 0.1722278892993927 252 255 0
-0.014841010794043541 -0.2934859097003937 -0.21594911813735962 252 255 0
-0.040135759860277176 -0.10708373785018921 -0.1970341056585312 252 255 0
-0.27048900723457336 0.4159480631351471 -0.060766320675611496 252 255 0
0.44183796644210815 -0.2461409866809845 0.01546463929116726 252 255 0
-0.31232038140296936 0.05232911556959152 0.1248077005147934 248 253 0
0.27423638105392456 -0.4914737939834595 -0.017560916021466255 253 255 0
-0.0753365308046341 0.3476676046848297 0.11337076127529144 253 255 0
0.3551517426967621 -0.060749977827072144 0.031861357390880585 252 255 0
-0.0469089038670063 0.01098536979407072 0.004945351742208004 251 255 0
-0.12109451740980148 0.35353967547416687 -0.08179603517055511 253 255 0
0.0973651185631752 -0.27006804943084717 0.2099168747663498 252 255 0
0.1383713185787201 -0.08800003677606583 0.1907157152891159 252 255 0
0.10367880761623383 0.03949340432882309 -0.11711763590574265 252 255 0
0.021136242896318436 0.29812726378440857 0.0338018462061882 236 236 236
-0.23770642280578613 0.20088642835617065 0.14591364562511444 247 251 0
-0.15533116459846497 0.2083098441362381 0.09963243454694748 249 252 0
0.09987829625606537 -0.025432169437408447 -0.21426600217819214 253 255 0
0.2816179692745209 -0.021781383082270622 0.07852505147457123 252 255 0
-0.40641915798187256 0.10476595163345337 0.10971544682979584 252 255 0
-0.42033204436302185 0.35355913639068604 0.0530838780105114 252 255 0
-0.1408473253250122 0.1102738305926323 -0.06610996276140213 252 255 0
0.1125766858458519 -0.3741937279701233 0.17042946815490723 252 255 0
-0.41152018308639526 0.1797298789024353 0.011185070499777794 252 255 0
-0.1197124794125557 -0.1941450834274292 -0.0050688437186181545 252 255 0
-0.06543254852294922 -0.17016129195690155 0.11830846220254898 251 255 0
-0.0754159614443779 -0.3043349087238312 0.0523405484855175 252 255 0
0.37423595786094666 -0.0688754990696907 -0.02413477562367916 252 255 0
-0.3704458773136139 0.09965267777442932 0.18027958273887634 254 255 0
0.3447260856628418 -0.15774402022361755 0.14501331746578217 252 255 0
-0.1922084540128708 0.2034105360507965 0.11981195956468582 245 250 0
0.28352808952331543 -0.11879928410053253 0.16945023834705353 252 255 0
-0.09870675951242447 -0.23546504974365234 0.05197755619883537 252 255 0
-0.1543598175048828 0.2831403315067291 0.13232751190662384 237 238 225
-0.009717476554214954 -0.2526359260082245 -0.23533964157104492 252 255 0
0.2168102115392685 -0.29740506410598755 -0.2815379500389099 252 255 0
-0.31735464930534363 0.38593485951423645 0.2751133143901825 254 255 0
0.01802956312894821 0.030560564249753952 -0.0827304795384407 251 255 0
-0.23690645396709442 0.012298124842345715 0.041957322508096695 251 254 0
-0.39977434277534485 0.17031382024288177 0.22899466753005981 250 254 90
0.2025308459997177 -0.47825801372528076 -0.13431933522224426 252 255 0
0.38834214210510254 -0.2664550840854645 0.12353464961051941 252 255 0
0.43033039569854736 -0.3636607825756073 0.037493299692869186 252 255 0
0.4009995460510254 -0.35289663076400757 -0.15345877408981323 251 255 0
0.43532195687294006 -0.32018354535102844 0.03612897917628288 252 255 0
0.01283581368625164 0.3800576627254486 0.07490112632513046 244 250 199
-0.0913260281085968 0.2095249742269516 0.06196609139442444 252 255 0
-0.060881033539772034 0.44866254925727844 0.14973773062229156 237 236 237
0.39273953437805176 -0.4272179901599884 -0.11432918906211853 252 255 0
-0.10897614806890488 0.10917986929416656 0.028230158612132072 253 255 0
-0.24060380458831787 0.47064071893692017 0.25882065296173096 250 255 0
0.338958740234375 -0.03362007066607475 -0.05863560736179352 252 255 0
0.04000626876950264 -0.19605660438537598 0.19775663316249847 252 255 0
-0.16665516793727875 0.12262610346078873 0.06854040175676346 252 255 0
-0.22926470637321472 0.04268869757652283 -0.010028754360973835 252 255 0
0.41761070489883423 -0.37952926754951477 -0.11999218910932541 252 255 0
0.1528160572052002 -0.4606189429759979 -0.16307863593101501 252 255 0
0.3623405694961548 -0.39713403582572937 0.09331537038087845 252 255 0
-0.3956953287124634 0.31111764907836914 0.28884199261665344 237 237 237
-0.2265908271074295 0.047067172825336456 0.07094673067331314 245 254 0
-0.2521878480911255 0.43040961027145386 0.2556740343570709 251 255 0
0.16324317455291748 -0.4902838468551636 0.01856328547000885 252 255 0
0.26130425930023193 -0.015614572912454605 -0.15942086279392242 252 255 0
-0.05719346925616264 0.026145903393626213 -0.058370064944028854 251 255 0
-0.010979588143527508 -0.3603685200214386 0.0993337631225586 252 255 0
0.27400025725364685 -0.48904839158058167 -0.07158258557319641 252 255 0
-0.0178357120603323 0.4023265540599823 0.10408046096563339 234 234 238
0.25940632820129395 -0.09666852653026581 -0.23965327441692352 252 255 0
-0.37360748648643494 0.3161677122116089 0.27794769406318665 255 254 143
-0.3342285454273224 0.1311757117509842 0.17253127694129944 252 255 0
-0.16728585958480835 0.4791089594364166 0.22644869983196259 236 236 236
-0.10788554698228836 0.32140153646469116 -0.08745194226503372 253 255 0
0.02591613307595253 -0.19342835247516632 -0.26117971539497375 252 255 0
-0.029191771522164345 0.23565514385700226 -0.05004170536994934 252 255 0
-0.00119768176227808 -0.12386834621429443 0.16204938292503357 252 255 0
-0.2635473310947418 0.29252779483795166 0.2017078995704651 251 255 0
0.00458833621814847 0.23227837681770325 0.015081578865647316 237 235 237
-0.028210695832967758 -0.2254452258348465 -0.2253270000219345 252 255 0
0.15947185456752777 -0.01556430384516716 0.13296069204807281 252 255 0
-0.20041829347610474 0.23992642760276794 -0.12117129564285278 252 255 0
0.10075965523719788 -0.47881534695625305 -0.007636216934770346 252 255 0
0.17585769295692444 -0.43847280740737915 0.1252262443304062 252 255 0
-0.10727997124195099 -0.25935715436935425 -0.06330839544534683 252 255 0
-0.15536639094352722 0.48771700263023376 0.2206530123949051 249 255 0
0.23715491592884064 -0.3532542586326599 0.18672727048397064 252 255 0
-0.09993301331996918 0.21186743676662445 -0.09225939959287643 252 255 0
0.26052311062812805 -0.19853843748569489 -0.276308536529541 252 255 0
0.1641121357679367 -0.2809434235095978 0.21757002174854279 252 255 0
-0.0041809058748185635 -0.417555570602417 -0.006774199195206165 252 255 0
0.03762245178222656 -0.03894759342074394 0.1357721984386444 252 255 0
0.4150761365890503 -0.1549568623304367 -0.10527948290109634 252 255 0
-0.16357910633087158 0.2287164032459259 -0.11576319485902786 252 255 0
-0.24691680073738098 0.30103394389152527 0.19538642466068268 244 253 0
0.27293717861175537 -0.32682862877845764 -0.25914329290390015 252 255 0
0.29465174674987793 -0.3213958442211151 0.18183733522891998 252 255 0
-0.2461019605398178 0.49148258566856384 0.18137769401073456 251 255 0
-0.311267614364624 0.12960688769817352 -0.05889929458498955 252 255 0
0.3922106921672821 -0.1989746242761612 0.11040893942117691 252 255 0
-0.05117403715848923 0.229904443025589 0.04692843556404114 251 255 0
0.05077877268195152 -0.45604026317596436 -0.010493822395801544 252 255 0
0.4428772032260895 -0.2797684669494629 0.019970817491412163 252 255 0
-0.15567627549171448 0.2712753415107727 0.1278020441532135 247 252 0
0.20756219327449799 -0.4705001711845398 0.07936105877161026 248 254 0
-0.07002467662096024 0.4475725591182709 0.05451643839478493 252 255 0
-0.29292014241218567 0.08841414749622345 -0.03545238450169563 252 255 0
-0.38916200399398804 0.1448369175195694 0.21139490604400635 253 255 0
-0.34252262115478516 0.09294933825731277 -0.0022001839242875576 252 255 0
0.008067145943641663 0.3864744305610657 0.07360170036554337 253 255 0
-0.14621828496456146 0.29736965894699097 0.1335238814353943 247 249 139
-0.3239162266254425 0.21984615921974182 0.2054508924484253 251 255 0
-0.2587839961051941 0.022853657603263855 0.07953400164842606 237 233 235
0.22248949110507965 -0.25197574496269226 0.21674394607543945 252 255 0
0.06521567702293396 -0.14831161499023438 0.2006465345621109 252 255 0
-0.08843280375003815 0.3368707299232483 0.1164754182100296 245 249 0
0.38021156191825867 -0.30783843994140625 0.12523576617240906 252 255 0
-0.3256705105304718 0.3308243155479431 0.25673097372055054 252 255 0
-0.2951495945453644 0.30518147349357605 -0.12153105437755585 252 255 0
0.3725455403327942 -0.1977231651544571 -0.2048126608133316 252 255 0
0.3009268045425415 -0.003997007850557566 -0.012510893866419792 252 255 0
-0.44566839933395386 0.2218080312013626 0.08335693180561066 252 255 0
-0.08442632108926773 0.3789539635181427 0.13274873793125153 252 255 0
-0.07075611501932144 0.24220597743988037 0.06424084305763245 247 253 0
0.3833370506763458 -0.08421380072832108 -0.07324380427598953 252 255 0
-0.21006540954113007 0.12938767671585083 -0.0860738456249237 252 255 0
-0.3869549334049225 0.3366245925426483 -0.057691384106874466 252 255 0
0.32896628975868225 -0.23042163252830505 0.17385756969451904 251 255 0
0.10418066382408142 -0.4735027849674225 0.02652323618531227 252 255 0
-0.019103286787867546 -0.04228244721889496 -0.17152397334575653 252 255 0
0.14194637537002563 -0.40932363271713257 0.14964815974235535 252 255 0
0.07102207839488983 -0.3183038830757141 0.18620114028453827 252 255 0
0.013940587639808655 0.23344536125659943 -0.004397904500365257 252 255 0
-0.31997600197792053 0.45874515175819397 0.05001963675022125 251 255 0
0.28493714332580566 -0.24012650549411774 0.19875435531139374 252 255 0
0.15824675559997559 -0.04174619913101196 -0.23128989338874817 252 255 0
-0.21280016005039215 0.4521544575691223 0.24184352159500122 249 253 62
-0.040198396891355515 0.140635147690773 0.0009348069434054196 245 245 191
-0.17367331683635712 0.17774812877178192 0.097152478992939 251 255 0
-0.17465946078300476 0.4044893980026245 0.19815191626548767 244 251 0
-0.08212842047214508 0.255740761756897 0.0768059641122818 254 255 66
-0.30010437965393066 0.4093649387359619 0.2751981019973755 236 240 225
-0.44728562235832214 0.2297658920288086 0.18388554453849792 251 255 0
0.4335232079029083 -0.18186910450458527 -0.00037489866372197866 252 255 0
-0.06503959000110626 0.17745283246040344 -0.06484347581863403 252 255 0
0.30566495656967163 -0.2904318869113922 0.18431887030601501 251 255 0
-0.29194045066833496 0.4804537892341614 0.11116291582584381 252 255 0
-0.3888584077358246 0.07548921555280685 0.16791105270385742 251 255 0
-0.42504316568374634 0.13325728476047516 0.16261039674282074 251 255 0
-0.0014404271496459842 0.27436575293540955 0.037053339183330536 254 255 0
-0.09875782579183578 0.46479448676109314 0.05761023610830307 252 255 0
-0.25606483221054077 0.28371909260749817 -0.12274911254644394 251 255 0
0.29836541414260864 -0.35883578658103943 0.1627475768327713 252 255 0
-0.2735029458999634 0.47085100412368774 0.23294799029827118 253 255 0
0.0688788965344429 -0.35355255007743835 0.16590699553489685 252 255 0
-0.117416612803936 -0.22589045763015747 -0.0517425462603569 252 254 0
-0.015065932646393776 -0.37581634521484375 -0.14571423828601837 252 255 0
-0.30050942301750183 0.17201028764247894 -0.08693472295999527 252 255 0
0.327246755361557 -0.4699498414993286 0.02498086541891098 252 255 0
-0.18222711980342865 0.336587131023407 0.17299717664718628 236 237 230
-0.07896163314580917 0.25027990341186523 0.07294517010450363 241 241 202
0.24550481140613556 -0.1678382158279419 0.20497038960456848 252 255 0
-0.09409680217504501 0.45541253685951233 0.17263686656951904 236 239 233
-0.3347151577472687 0.06188474968075752 0.14214138686656952 251 255 0
-0.36316993832588196 0.07098820060491562 0.06098910793662071 252 255 0
0.223358154296875 -0.49715036153793335 -0.019165782257914543 252 255 0
-0.09988386183977127 -0.26580262184143066 -0.09604405611753464 252 255 0
-0.2859882712364197 0.24075548350811005 0.1925065666437149 244 245 192
-0.160519540309906 0.4337201416492462 0.20234352350234985 255 255 111
0.19207505881786346 -0.3878812789916992 -0.24259115755558014 252 255 0
-0.3153233528137207 0.3986921012401581 0.27962446212768555 242 243 198
0.20674239099025726 -0.038633689284324646 0.14662835001945496 252 255 0
-0.30823373794555664 0.39925289154052734 0.2758214771747589 251 250 129
-0.11126140505075455 -0.051269371062517166 -0.07794933021068573 252 255 0
-0.4019427001476288 0.316745787858963 -0.029653001576662064 252 255 0
0.13963259756565094 -0.0012774310307577252 -0.1917780190706253 250 254 0
-0.04843591898679733 -0.10239724814891815 0.11510642617940903 252 255 0
-0.23634377121925354 0.08041359484195709 -0.04890027642250061 252 255 0
-0.3941071331501007 0.4104444682598114 0.1218167319893837 252 255 0
-0.1823209673166275 0.27991193532943726 0.14748258888721466 237 236 236
0.008147559128701687 -0.07963092625141144 -0.2204541265964508 251 255 0
0.3290066719055176 -0.06353411078453064 0.08413314074277878 252 255 0
0.18702004849910736 -0.24630782008171082 0.22230158746242523 252 255 0
0.21934731304645538 0.03302769735455513 -0.08625012636184692 250 255 0
-0.01120145246386528 -0.28166520595550537 0.15220294892787933 252 255 0
0.2526792585849762 0.0045104557648301125 -0.13224920630455017 252 255 0
-0.09527847915887833 0.0246314387768507 -0.03885864466428757 243 252 0
-0.02538720890879631 0.2505100965499878 0.04054676368832588 239 238 223
-0.3420555591583252 0.035715363919734955 0.1349957138299942 242 240 241
0.39986521005630493 -0.12751948833465576 -0.11354988813400269 252 255 0
-0.23163434863090515 0.480590283870697 0.03891109675168991 252 255 0
0.2781253755092621 -0.4285534620285034 -0.19127531349658966 252 255 0
0.05042058229446411 -0.15918534994125366 -0.26765862107276917 252 255 0
-0.06909652054309845 0.4658777713775635 0.16197876632213593 237 238 229
0.2539898753166199 0.02359440177679062 -0.023849306628108025 252 255 0
-0.30811187624931335 0.2800824046134949 0.22268064320087433 251 255 0
0.29403895139694214 -0.41826990246772766 0.12289950996637344 252 255 0
0.429919958114624 -0.16406771540641785 -0.05775236710906029 252 255 0
-0.15714149177074432 0.024885039776563644 0.013353540562093258 250 255 0
-0.113528773188591 0.45406413078308105 0.18320928514003754 254 255 0
-0.10956709831953049 0.31930434703826904 0.1214204803109169 247 253 0
0.13279131054878235 -0.48939940333366394 -0.04252655431628227 252 255 0
-0.27864646911621094 0.15499107539653778 0.1497652679681778 252 255 0
-0.3667632043361664 0.20363563299179077 0.22404462099075317 252 255 0
0.2470090091228485 0.015997476875782013 0.0343710333108902 252 255 0
0.11110290884971619 -0.4240610897541046 0.12487106770277023 252 255 0
0.20798519253730774 -0.40555036067962646 0.15737831592559814 252 255 0
0.003410276025533676 -0.42708393931388855 -0.03899889066815376 252 255 0
-0.07918405532836914 -0.21691039204597473 -0.1661849021911621 251 255 0
-0.27423596382141113 0.37737971544265747 0.2458016574382782 250 253 0
-0.1976422667503357 0.03959120064973831 -0.008270148187875748 251 255 0
0.40035155415534973 -0.3568177819252014 0.0808788388967514 252 255 0
-0.23443087935447693 0.3262706995010376 -0.11650951951742172 250 255 0
0.04618513956665993 -0.07315799593925476 0.16444197297096252 252 255 0
-0.16149035096168518 0.24025142192840576 0.11744846403598785 236 239 226
0.010902008973062038 -0.4129277169704437 -0.12322328239679337 253 255 0
-0.21319304406642914 0.4100167155265808 0.22348733246326447 251 255 0
0.05286332219839096 -0.25775760412216187 0.19889619946479797 252 255 0
-0.2897711396217346 0.024441780522465706 0.05347756668925285 252 255 0
0.186268612742424 0.0056923432275652885 0.10006864368915558 251 255 0
0.09109893441200256 -0.3678848147392273 -0.2374466359615326 252 255 0
0.15986530482769012 0.03083936683833599 -0.13409210741519928 251 255 0
0.027885496616363525 -0.3934862017631531 -0.1758532077074051 252 255 0
-0.1412169188261032 0.043078288435935974 0.01814982481300831 235 236 235
-0.05597780644893646 0.2511737048625946 -0.06992935389280319 252 255 0
-0.09243772178888321 0.11435543745756149 0.02051365189254284 248 250 152
0.4456973671913147 -0.38620513677597046 -0.014099416323006153 252 255 0
-0.39785653352737427 0.13403505086898804 0.21214720606803894 235 237 239
-0.11179207265377045 -0.004053772892802954 0.010667973197996616 255 255 0
-0.2502794861793518 0.2532821595668793 0.17635682225227356 247 252 0
-0.23630845546722412 0.09257236868143082 0.09693481028079987 252 255 0
0.15221114456653595 -0.06379734724760056 0.1756647676229477 252 255 0
-0.12001960724592209 0.23451514542102814 0.09022055566310883 252 255 0
-0.1162075325846672 0.04462839290499687 0.0006788762402720749 251 255 0
-0.42008447647094727 0.1479991227388382 0.2270728051662445 254 255 0
-0.1759917140007019 0.06183122470974922 -0.03375975787639618 252 255 0
-0.055662818253040314 -0.3208313584327698 -0.1457422524690628 252 255 0
0.1916511058807373 -0.06714511662721634 -0.2453477531671524 252 255 0
-0.439912885427475 0.32610616087913513 0.11231229454278946 252 255 0
-0.15870769321918488 0.19681134819984436 -0.10780482739210129 252 255 0
-0.05358080565929413 0.12694650888442993 -0.035560399293899536 251 255 0
-0.325364887714386 0.058227211236953735 0.02663695439696312 252 255 0
-0.3743155598640442 0.11045244336128235 0.015961071476340294 252 255 0
-0.2977730929851532 0.1561286598443985 0.16158924996852875 251 251 138
-0.3967418968677521 0.1477113962173462 0.012724055908620358 252 255 0
0.4202083647251129 -0.2692755460739136 0.07730069756507874 252 255 0
0.3398359715938568 -0.43120110034942627 -0.14954397082328796 252 255 0
-0.1143404096364975 -0.14948202669620514 -0.08857288211584091 255 255 0
-0.21481561660766602 0.48140376806259155 0.24140717089176178 253 255 0
-0.03821280226111412 -0.38431352376937866 -0.004502037074416876 252 255 0
-0.18808779120445251 0.04181404411792755 0.045555900782346725 249 253 0
0.04205535352230072 -0.2973698079586029 0.18211697041988373 252 255 0
0.3457607626914978 -0.06766004115343094 -0.1381375938653946 252 255 0
-0.21924836933612823 0.18912844359874725 -0.11185194551944733 252 255 0
-0.42591777443885803 0.24834005534648895 0.2583831548690796 252 255 0
-0.041180793195962906 0.12621644139289856 -0.004952601157128811 236 236 236
-0.23228920996189117 0.2516009211540222 0.16484776139259338 236 235 236
-0.267366498708725 0.06742794811725616 0.10417616367340088 251 255 0
0.37713858485221863 -0.21674808859825134 0.13254082202911377 252 255 0
0.013137741945683956 -0.032169852405786514 0.11565211415290833 252 255 0
-0.07060573995113373 -0.2733590006828308 0.08939886093139648 251 255 0
-0.12984615564346313 0.17277351021766663 0.06874940544366837 249 253 0
-0.12946061789989471 0.060011040419340134 0.01866496354341507 247 251 61
0.3984895944595337 -0.15343990921974182 0.07213681191205978 252 255 0
-0.13338172435760498 -0.027235765010118484 -0.02114357054233551 251 255 0
-0.2052425742149353 0.02650604210793972 0.04892170801758766 237 234 239
0.016107594594359398 -0.24784217774868011 -0.2519879937171936 252 255 0
-0.27457791566848755 0.38216543197631836 -0.09738540649414062 252 255 0
-0.15465298295021057 0.3178308308124542 0.14787234365940094 252 255 0
-0.4475579857826233 0.2722981870174408 0.08229956030845642 251 255 0
-0.2593759000301361 0.03251250460743904 0.08408559858798981 255 255 0
0.09831526130437851 -0.044413477182388306 0.15865111351013184 252 255 0
0.1981554925441742 0.0062759448774158955 -0.16780760884284973 252 255 0
0.36967259645462036 -0.31852078437805176 -0.20261020958423615 252 255 0
-0.18495552241802216 0.3786301910877228 0.1928550750017166 252 255 0
0.0038387232925742865 0.03269750252366066 -0.04252344369888306 252 255 0
-0.037947557866573334 0.4491736590862274 0.13595156371593475 246 247 179
-0.18982864916324615 0.45934611558914185 0.23154832422733307 246 255 1
0.017492877319455147 -0.42090940475463867 0.04419218376278877 251 255 0
-0.23525334894657135 0.21303845942020416 0.14999549090862274 243 244 195
-0.21508997678756714 0.2827732563018799 0.16828234493732452 253 255 0
-0.4269014596939087 0.3579447567462921 0.1258927881717682 251 255 0
-0.13631774485111237 0.37942078709602356 0.16458916664123535 252 255 0
-0.12389496713876724 0.18597190082073212 -0.09675627946853638 252 255 0
0.19129617512226105 -0.27646878361701965 -0.2883862555027008 252 255 0
-0.38058775663375854 0.09401093423366547 0.1838463842868805 237 237 235
-0.3506441116333008 0.4228627383708954 0.01109379529953003 252 255 0
-0.2238030582666397 0.46640998125076294 0.007778631988912821 252 255 0
-0.22655266523361206 0.2879100739955902 0.1774066835641861 238 237 234
-0.2187613546848297 0.14736758172512054 0.11082834750413895 250 251 66
-0.3884676992893219 0.2018290013074875 -0.0338948592543602 252 255 0
0.1288042664527893 -0.11697190254926682 -0.27450594305992126 253 255 0
0.20780490338802338 0.04087454453110695 -0.033271849155426025 252 255 0
0.08188838511705399 -0.4036330580711365 0.13249029219150543 252 255 0
-0.3324556052684784 0.1183818057179451 0.16575586795806885 237 237 235
-0.051802318543195724 -0.2725366950035095 -0.1864989697933197 252 255 0
0.010585352778434753 0.2781277596950531 -0.004124115686863661 251 255 0
0.22864636778831482 -0.19219422340393066 0.21345645189285278 252 255 0
0.005583059974014759 0.2436801940202713 0.01959782838821411 236 238 230
-0.1389133781194687 0.2661519944667816 0.11534392833709717 252 255 0
-0.14047527313232422 0.2484157681465149 -0.11059554666280746 252 255 0
0.09576121717691422 -0.4641076624393463 -0.11919691413640976 252 255 0
-0.350107878446579 0.28235870599746704 -0.09840632975101471 252 255 0
-0.3440837264060974 0.36569494009017944 0.282230943441391 237 237 230
-0.35977497696876526 0.25987768173217773 0.24504703283309937 251 255 0
-0.20077568292617798 0.24926264584064484 0.14489996433258057 236 236 236
-0.297970712184906 0.23249176144599915 0.19565649330615997 252 255 0
0.44577279686927795 -0.23263941705226898 -0.02454007789492607 250 255 0
0.2051013559103012 -0.17103208601474762 -0.2861705720424652 252 255 0
0.18415096402168274 -0.33278489112854004 -0.2725735008716583 252 255 0
-0.3757385015487671 0.28033962845802307 -0.07385081797838211 252 255 0
0.014580676332116127 -0.4297950863838196 0.015068257227540016 252 255 0
-0.4461687207221985 0.19178402423858643 0.14619070291519165 252 255 0
0.13947546482086182 -0.4786415100097656 -0.11779586225748062 251 255 0
-0.0799761712551117 -0.15110792219638824 0.09240513294935226 252 255 0
-0.33655452728271484 0.3508003056049347 -0.13658523559570312 252 255 0
-0.3629627525806427 0.42832425236701965 0.2024049311876297 251 255 0
-0.16614265739917755 0.42884060740470886 0.20466259121894836 241 247 198
0.24997065961360931 0.021717902272939682 -0.08318032324314117 252 255 0
-0.3325860798358917 0.2480631321668625 -0.0981219932436943 252 255 0
0.2824154198169708 -0.2917789816856384 -0.264189213514328 252 255 0
-0.12202094495296478 0.4081439673900604 -0.04418892785906792 252 255 0
0.0636204183101654 -0.006836353335529566 -0.1860562562942505 252 255 0
-0.06731327623128891 -0.34959888458251953 -0.048069585114717484 251 255 0
0.3101423680782318 -0.48175838589668274 -0.07434796541929245 252 255 0
-0.04076332226395607 -0.07998520880937576 -0.1810147762298584 252 255 0
0.30154550075531006 -0.15748600661754608 -0.2485550045967102 252 255 0
-0.012808629311621189 0.3801777958869934 0.09043856710195541 252 253 158
-0.3080728054046631 0.2482876181602478 0.2086653709411621 250 255 63
-0.024830495938658714 0.340293288230896 -0.019366711378097534 252 255 0
0.17315776646137238 -0.021916324272751808 -0.21018999814987183 252 255 0
0.31338271498680115 -0.44567787647247314 0.07922110706567764 252 255 0
-0.41991090774536133 0.17144648730754852 0.24153926968574524 238 237 238
-0.11659101396799088 -0.22148044407367706 -0.017971200868487358 252 255 0
-0.2390284687280655 0.3612879514694214 0.21737244725227356 251 255 0
-0.3932654857635498 0.20551452040672302 0.2406449019908905 253 255 0
-0.44363927841186523 0.30101585388183594 0.16877907514572144 252 255 0
0.06421778351068497 -0.4314408004283905 0.08313754945993423 252 255 0
-0.27253109216690063 0.1217057853937149 0.13146871328353882 251 255 0
0.2179035097360611 -0.05897654592990875 -0.23129528760910034 252 255 0
-0.434002161026001 0.2888190746307373 0.2216627150774002 252 255 0
-0.015057011507451534 0.36964842677116394 0.013594098389148712 252 255 0
-0.039587389677762985 0.30098578333854675 0.07131097465753555 252 255 0
0.024133332073688507 -0.2207493782043457 0.19012701511383057 251 255 0
-0.1582057774066925 0.2887110710144043 0.13707463443279266 252 255 0
-0.2434471696615219 0.2395564615726471 -0.12030764669179916 252 255 0
0.4081936478614807 -0.11850768327713013 -0.017475087195634842 252 255 0
0.3244240880012512 -0.3981228768825531 -0.19454048573970795 252 255 0
0.06697256118059158 -0.003052307525649667 0.11120578646659851 252 255 0
0.23225420713424683 -0.027508538216352463 0.12327317893505096 252 255 0
-0.017201630398631096 -0.10871590673923492 -0.2178419828414917 252 255 0
-0.027517138049006462 -0.30979812145233154 -0.19383496046066284 252 255 0
-0.42898526787757874 0.33547598123550415 0.18991491198539734 252 255 0
-0.37469246983528137 0.38033565878868103 -0.059260983020067215 251 255 0
-0.08112318068742752 -0.11250565201044083 -0.14883588254451752 252 255 0
0.18380513787269592 -0.1559537947177887 0.2142273485660553 252 255 0
-0.11270958185195923 0.24049140512943268 -0.10030035674571991 252 255 0
-0.09156761318445206 0.09517370909452438 0.011437383480370045 250 255 0
-0.048097871243953705 -0.3322848379611969 0.07522633671760559 252 255 0
0.41808971762657166 -0.1818453073501587 0.05588211119174957 252 255 0
0.05705859139561653 -0.32612767815589905 -0.2485457807779312 252 255 0
0.26758310198783875 -0.039908576756715775 0.1171031966805458 252 255 0
-0.3070657253265381 0.41263076663017273 0.28074681758880615 237 238 236
-0.40819624066352844 0.2891315817832947 0.28219839930534363 252 255 0
-0.04838922619819641 0.45506495237350464 0.13689088821411133 252 255 0
-0.05918781831860542 -0.0670667514204979 0.07978370785713196 252 255 0
-0.040756791830062866 -0.1717270165681839 -0.21389296650886536 252 255 0
-0.17409050464630127 0.4931183159351349 0.20128367841243744 252 255 0
-0.028281988576054573 0.30437538027763367 -0.03961508721113205 252 255 0
-0.016474729403853416 -0.055722348392009735 0.11414826661348343 252 255 0
0.41272515058517456 -0.38254985213279724 0.05438549071550369 252 255 0
-0.2484089881181717 0.136931911110878 0.12376108020544052 252 255 0
0.12908552587032318 -0.22686053812503815 0.22095367312431335 252 255 0
0.07971487939357758 -0.4707135260105133 -0.06282832473516464 254 255 0
0.11407889425754547 0.053561002016067505 -0.05122137442231178 252 255 0
0.06010158732533455 -0.45069268345832825 -0.10921480506658554 252 255 0
-0.11969850212335587 -0.0037192797753959894 -0.050710614770650864 251 255 0
0.3459946811199188 -0.19299334287643433 -0.2275480031967163 252 255 0
0.23959387838840485 -0.2259526252746582 0.21480903029441833 252 255 0
0.24141483008861542 -0.4860256612300873 0.03525017574429512 252 255 0
-0.06405378133058548 -0.054249078035354614 -0.13621404767036438 252 255 0
-0.26874077320098877 0.22751207649707794 0.17614151537418365 250 253 66
0.16255877912044525 -0.39935892820358276 -0.23353999853134155 252 255 0
-0.08547692745923996 0.1487036943435669 0.031520843505859375 252 255 0
0.2692601680755615 -0.05633426457643509 -0.20341363549232483 252 255 0
-0.3813983201980591 0.10049007833003998 0.045764196664094925 252 255 0
-0.08807121217250824 -0.11046628654003143 0.06435955315828323 252 255 0
0.29717573523521423 -0.0016742917941883206 -0.059862516820430756 252 255 0
-0.2827421724796295 0.051619283854961395 -0.00033280381467193365 252 255 0
-0.26561036705970764 0.4532759487628937 -0.008359482511878014 251 255 0
-0.39033257961273193 0.3275775909423828 0.28969231247901917 252 255 0
-0.22329577803611755 0.34008651971817017 0.19857066869735718 252 255 0
-0.31491217017173767 0.4328601360321045 -0.014542545191943645 252 255 0
0.4252830445766449 -0.1952124536037445 -0.11696714162826538 252 255 0
0.436468243598938 -0.3236817717552185 -0.10464782267808914 252 255 0
0.14541186392307281 0.05005263909697533 -0.002247279742732644 252 255 0
0.23673298954963684 -0.40919023752212524 0.15122415125370026 252 255 0
0.08245831727981567 -0.21107010543346405 0.21306250989437103 252 255 0
0.04703909531235695 0.04406781494617462 -0.026859261095523834 252 255 0
0.2274605631828308 -0.4848431646823883 -0.11475609242916107 252 255 0
-0.09545335173606873 -0.16995294392108917 -0.14083588123321533 252 255 0
0.09068873524665833 -0.4453350901603699 0.08309950679540634 251 255 0
0.02977580763399601 -0.053972672671079636 -0.21548490226268768 252 255 0
-0.2692731022834778 0.18186978995800018 -0.10292556136846542 251 255 0
-0.044508013874292374 -0.12812919914722443 0.12966975569725037 252 255 0
-0.13336122035980225 0.3020317256450653 -0.10378596186637878 252 255 0
0.3574780523777008 -0.34983688592910767 -0.19925707578659058 252 255 0
0.14062705636024475 0.044645726680755615 0.028208209201693535 252 255 0
-0.2084762006998062 0.06464129686355591 0.06792918592691422 251 255 0
-0.11798190325498581 0.09307043254375458 -0.04672764241695404 252 255 0
-0.1753891408443451 0.3360680937767029 0.16811946034431458 250 254 0
0.44808536767959595 -0.2532140910625458 -0.04843052104115486 252 255 0
0.07388628274202347 -0.4692237973213196 -0.0229517612606287 252 255 0
-0.13196659088134766 0.47517362236976624 0.05576993152499199 252 255 0
-0.2580289840698242 0.25550082325935364 0.18191291391849518 255 255 0
0.2870512902736664 -0.26934942603111267 0.19611431658267975 252 255 0
-0.1467716246843338 0.2472500503063202 0.1117100715637207 237 238 218
-0.20789344608783722 0.1118684932589531 0.08858202397823334 252 254 0
-0.08841933310031891 0.026802390813827515 -0.012725773267447948 255 255 0
0.22089098393917084 -0.45981064438819885 -0.16611279547214508 252 255 0
-0.15405210852622986 0.4255760908126831 0.19515079259872437 252 255 0
-0.33063095808029175 0.19038629531860352 -0.08015342056751251 252 255 0
0.3180355727672577 -0.16440029442310333 0.16939763724803925 252 255 0
-0.3078143298625946 0.39007315039634705 -0.11975790560245514 252 255 0
-0.09714113920927048 0.3928454518318176 -0.042320165783166885 252 255 0
-0.40279868245124817 0.3919605314731598 0.17321622371673584 252 255 0
-0.08322902023792267 -0.3069828450679779 -0.09783545881509781 251 255 0
0.30997511744499207 -0.38054075837135315 -0.21550309658050537 252 255 0
-0.23938363790512085 0.49475544691085815 0.13568748533725739 252 255 0
-0.16716362535953522 0.2080381065607071 0.106714628636837 234 235 239
-0.01640879176557064 -0.38924145698547363 0.04950788617134094 252 255 0
-0.26822537183761597 0.3470323979854584 -0.11532854288816452 252 255 0
-0.45010390877723694 0.22234274446964264 0.11648864299058914 252 255 0
0.22032570838928223 -0.4952143728733063 -0.07970882952213287 252 255 0
-0.18102341890335083 0.4954572916030884 0.09504080563783646 252 255 0
0.4435291290283203 -0.2959882616996765 -0.08762938529253006 252 255 0
0.005464600399136543 0.29531171917915344 0.04191869869828224 249 254 0
-0.3223384618759155 0.10262837260961533 0.15278896689414978 251 255 0
0.035349998623132706 0.029089152812957764 -0.1057414561510086 252 255 0
0.30618181824684143 -0.03968492150306702 0.07868387550115585 252 255 0
0.00657879002392292 -0.39510515332221985 -0.1480022370815277 252 255 0
-0.06412463635206223 0.31346675753593445 0.09162862598896027 252 255 0
-0.27515390515327454 0.22158637642860413 -0.11203834414482117 252 255 0
0.14435981214046478 -0.08396685123443604 -0.25998878479003906 252 255 0
0.3696082830429077 -0.254191517829895 0.14290201663970947 252 255 0
-0.05467240884900093 0.26121097803115845 0.0633610263466835 251 255 0
0.3968793451786041 -0.17005297541618347 -0.16202855110168457 251 255 0
0.37011653184890747 -0.2524276673793793 -0.21378503739833832 252 255 0
-0.0004728978092316538 -0.260481595993042 0.16882862150669098 252 255 0
-0.10440123826265335 -0.1604362279176712 0.05015294998884201 252 255 0
-0.1022387370467186 0.45050856471061707 0.17511695623397827 245 255 0
-0.013669557869434357 -0.01197545975446701 0.06951101869344711 252 255 0
-0.28812217712402344 0.18288828432559967 0.16806425154209137 251 255 0
0.3576177656650543 -0.19850634038448334 0.14637112617492676 252 255 0
-0.0879601538181305 -0.30925795435905457 -0.0069090696051716805 252 255 0
-0.026158981025218964 0.3626224994659424 0.09093882888555527 252 255 0
0.0948113426566124 -0.29800158739089966 -0.2738799452781677 252 255 0
0.36272838711738586 -0.14887332916259766 0.1220029965043068 252 255 0
0.03652127832174301 0.016066282987594604 0.06659644097089767 251 255 0
0.1859201043844223 -0.11158524453639984 -0.27094021439552307 252 255 0
-0.03904123231768608 -0.2242625504732132 0.14453065395355225 252 255 0
-0.3645992875099182 0.23195989429950714 -0.06998261064291 252 255 0
0.1306331902742386 -0.21573853492736816 -0.29246875643730164 252 255 0
-0.01583211123943329 -0.07951592653989792 0.13048192858695984 252 255 0
0.142067089676857 -0.42453789710998535 -0.20683470368385315 252 255 0
0.13221484422683716 -0.04182535037398338 0.15903151035308838 252 255 0
-0.08047334104776382 0.012654363177716732 -0.08290111273527145 252 255 0
-0.4248034656047821 0.33011582493782043 0.036920368671417236 252 255 0
0.05725632980465889 -0.051514964550733566 -0.22381404042243958 252 255 0
-0.04729092866182327 -0.23766349256038666 -0.20303861796855927 252 255 0
0.2301696538925171 -0.1394442766904831 0.20061396062374115 252 255 0
0.4079931378364563 -0.21468821167945862 0.09215865284204483 252 255 0
0.37411803007125854 -0.41482049226760864 0.06914675235748291 252 255 0
-0.40265145897865295 0.3430134356021881 -0.009678053669631481 252 255 0
0.22559159994125366 0.015570288524031639 0.06167004257440567 252 255 0
0.43795832991600037 -0.19637823104858398 -0.06713838875293732 252 255 0
-0.0029968838207423687 0.3425932228565216 0.06788831949234009 254 255 0
0.34155580401420593 -0.03959863260388374 -0.08664996176958084 252 255 0
0.2443910837173462 -0.0696473941206932 0.157544806599617 252 255 0
0.40694308280944824 -0.2586154043674469 0.10047171264886856 252 255 0
-0.26445189118385315 0.1751333326101303 0.1501394510269165 247 252 0
-0.40281757712364197 0.28171250224113464 -0.0327344685792923 252 255 0
0.12191179394721985 0.012979836203157902 0.09812101721763611 252 255 0
-0.12057263404130936 -0.17246414721012115 -0.05813150852918625 252 255 0
-0.07835467904806137 -0.15546879172325134 -0.1695198267698288 252 255 0
-0.3523135781288147 0.12468253076076508 -0.02362063340842724 251 255 0
0.22540540993213654 -0.03876618668437004 -0.21137085556983948 251 255 0
0.4382719099521637 -0.3946174085140228 -0.07621480524539948 253 255 0
0.04568272829055786 -0.10189426690340042 -0.2500171363353729 252 255 0
-0.004116424359381199 -0.14255502820014954 -0.23741452395915985 252 255 0
0.2013522833585739 0.040027227252721786 0.005677185952663422 252 255 0
-0.2277677208185196 0.4957626461982727 0.0993119478225708 251 255 0
-0.38771262764930725 0.4082918167114258 0.06405375152826309 252 255 0
0.11906906962394714 -0.04117658734321594 -0.23044604063034058 252 255 0
0.4094487726688385 -0.4232397973537445 0.02860712632536888 252 255 0
-0.2647445797920227 0.02195020020008087 0.03742153197526932 252 255 0
0.005109081976115704 -0.08809089660644531 0.15185891091823578 252 255 0
-0.18166615068912506 0.33319753408432007 -0.10774367302656174 251 255 0
0.150279238820076 0.051532428711652756 -0.04492901638150215 252 255 0
-0.07478003948926926 -0.20849080383777618 0.10423015803098679 252 255 0
0.11702481657266617 -0.37976253032684326 -0.23837429285049438 252 255 0
-0.16620707511901855 0.2264695018529892 0.11433552950620651 248 252 111
-0.026394158601760864 0.40907958149909973 0.04741273820400238 252 255 0
0.03914996609091759 -0.3793230950832367 0.12782326340675354 252 255 0
0.3236667513847351 -0.4834436774253845 -0.027818260714411736 252 255 0
-0.4145070016384125 0.14159126579761505 0.22516469657421112 235 235 235
-0.18915952742099762 0.4616277515888214 -0.0005608866340480745 252 255 0
0.19736789166927338 -0.3525119423866272 0.1930154412984848 252 255 0
0.38470467925071716 -0.22192996740341187 -0.19611351191997528 252 255 0
0.4172520637512207 -0.13602885603904724 -0.04783622920513153 252 255 0
0.023413989692926407 0.34227603673934937 0.052538175135850906 235 234 241
0.4058147966861725 -0.45734062790870667 -0.017518900334835052 252 255 0
0.25634151697158813 -0.4574669301509857 -0.16078901290893555 252 255 0
0.18454380333423615 -0.4953444302082062 -0.0735485777258873 252 255 0
-0.3790174126625061 0.1111224889755249 0.19112956523895264 248 255 0
0.011350790970027447 -0.42298221588134766 -0.09670800715684891 252 255 0
-0.3919641971588135 0.3897952735424042 0.03234647214412689 252 255 0
-0.14796942472457886 0.1386425942182541 -0.08420024067163467 252 255 0
0.05631353706121445 -0.425629585981369 -0.1563691347837448 252 255 0
-0.06727031618356705 -0.19776029884815216 -0.18661737442016602 252 255 0
0.004440327174961567 0.36313915252685547 0.07243172824382782 236 235 236
0.21491901576519012 -0.4127046763896942 -0.22304032742977142 252 255 0
0.44912880659103394 -0.3505305051803589 -0.061553724110126495 252 255 0
-0.18074633181095123 0.01862865686416626 0.02166297659277916 247 255 0
-0.031143704429268837 0.002026815665885806 -0.10801976919174194 251 255 0
0.3541107177734375 -0.0453048013150692 -0.035914476960897446 252 255 0
-0.14631973206996918 0.495336651802063 0.14289499819278717 252 255 0
0.034250590950250626 -0.29630717635154724 -0.24954570829868317 252 255 0
-0.03385597839951515 0.12281595170497894 -0.016466984525322914 250 254 0
